# .PCD v0.7 - Point Cloud Data file format
VERSION 0.7
FIELDS x y z
SIZE 4 4 4
TYPE F F F
COUNT 1 1 1
WIDTH 1600
HEIGHT 1
VIEWPOINT 0 0 0 1 0 0 0
POINTS 1600
DATA ascii
3.5804102 4.4796939 8.9871807
3.5334487 4.0196609 9.1990604
3.8424132 4.4536762 9.5600958
3.5819814 4.5021877 0.062848948
3.7208815 4.8906884 0.82245016
3.5122707 4.8575387 1.487278
3.5318544 4.8603883 1.7501444
3.6133459 4.7351966 2.4874134
3.8212907 4.8338423 2.8277488
3.9298768 4.944778 3.7400911
3.9400363 4.709784 4.8255072
3.748621 4.5104856 5.2748051
3.6596892 4.9499979 5.6013041
3.9192903 4.6200299 6.8299727
3.7527821 4.9448433 7.037323
3.8813195 4.8849611 7.8440933
3.5336843 4.5768609 8.060256
3.9726868 4.5247216 9.0105171
3.5198259 4.5486627 9.9734554
3.6453404 5.2628288 0.037627004
3.8776298 5.4294434 1.4737012
3.5044978 5.066165 1.6676874
3.761713 5.4883938 2.1625051
3.8131351 5.2801328 3.1615508
3.6056666 5.2065678 4.4130511
3.6971984 5.0779991 4.9454327
3.7166405 5.328434 5.1581054
3.5680628 5.3897629 5.808013
3.7075388 5.468235 6.4912009
3.9426277 5.0598722 6.652586
3.738086 5.3970013 7.7777534
3.9691832 5.2033167 8.4476471
3.5527239 5.4820113 8.7285347
3.5971 5.0058718 9.4269705
3.6012175 5.6980782 0.14904371
3.7457314 5.5505729 0.70618922
3.7768965 5.8931217 1.1813544
3.8518474 5.5888786 1.680449
3.9326277 5.5050468 3.4276352
3.7792773 5.9460726 3.6015859
3.6790812 5.5319924 4.075748
3.6488483 5.979424 5.4705405
3.6938367 5.5384369 5.9676361
3.809144 5.5408697 6.0829878
3.6030121 5.515274 6.8737836
3.764374 5.8722658 7.2548742
3.8897598 5.6531806 7.7343154
3.9988985 5.5512376 8.4824142
3.947005 5.8047266 8.8065834
3.5207253 6.3106308 0.31822628
3.8635144 6.1576514 0.5183863
3.8224709 6.2022533 1.0479237
3.8186266 6.394536 1.8833606
3.5800126 6.3395939 2.1720338
3.9614353 6.186955 3.3644128
3.7098536 6.1824536 3.963089
3.7629364 6.4782004 4.544395
3.519449 6.4762049 5.1169291
3.9757214 6.4747305 5.9864373
3.9270589 6.1926146 7.6704049
3.5207863 6.0833006 8.5659494
3.8635993 6.4388652 9.0358086
3.6930923 6.3486366 9.9396706
3.500304 6.8340735 0.29081631
3.9196823 6.850677 0.60382313
3.7967591 6.9834032 1.0316932
3.9438658 6.5529609 1.7520397
3.9080734 6.7720432 2.6724184
3.6225457 6.8944254 3.9385381
3.8746009 6.7445393 4.3848171
3.7154124 6.650795 4.6350703
3.813118 6.6097875 5.88557
3.9804242 6.6603985 6.9137759
3.5846682 6.7434068 7.6429529
3.9123747 6.572042 8.4972544
3.9876926 6.8185463 8.8528328
3.7548203 6.9628358 9.8964834
3.7721791 7.1194196 0.576756
3.9486642 7.4863052 1.4962119
3.5090506 7.3316441 1.6666521
3.8864818 7.0792527 2.0934174
3.5163441 7.0498471 3.2934942
3.8436258 7.0096965 3.5413127
3.8505056 7.2822328 4.0036778
3.8329515 7.2472878 5.3551559
3.6224704 7.1662068 6.2612872
3.9530354 7.1530991 6.5951843
3.7070584 7.0819931 7.9453793
3.9502306 7.0228758 8.3868103
3.8516843 7.88902 1.1456001
3.5089355 7.7172546 2.2623193
3.5490534 7.8064241 2.7735445
3.5693259 7.5217438 3.3290443
3.6609986 7.6209631 3.6455464
3.5731175 7.5896049 4.4510083
3.6089272 7.7779388 5.2468271
3.5712585 7.5428147 5.8687086
3.6309421 7.7400942 6.0017109
3.8354814 7.5692968 7.4043503
3.6353734 7.8896513 7.8978009
3.7367594 7.6691079 8.106926
3.6489897 7.7686987 8.5400085
3.7957668 7.5123844 9.4483414
3.9256213 7.6797895 9.6348171
3.8483467 8.33356 0.18856707
3.9688635 8.4991293 1.0514203
3.7440288 8.4502659 1.8361244
3.8370013 8.1712141 2.839232
3.7835555 8.4576321 3.4776325
3.5317292 8.1057549 4.2188444
3.6838999 8.1152954 5.0715899
3.9066875 8.0770512 5.7727389
3.6848304 8.4185104 6.1940451
3.8930497 8.3411541 6.8406916
3.7204151 8.3499832 7.4191961
3.605865 8.4874487 7.8943357
3.9638681 8.0362968 8.708189
3.9391379 8.4185801 9.3956738
3.6808019 8.152874 9.7499218
3.8945551 8.7153311 0.23175739
3.7603374 8.9032383 1.298853
3.9222372 8.8523054 1.8965495
3.9474111 8.870822 2.5227523
3.8294873 8.808177 3.5614135
3.6742268 8.8044624 4.1628041
3.9002035 8.6048603 5.1132894
3.9611959 8.8505754 5.8451872
3.9538593 8.7275972 6.3619804
3.5175972 8.6427803 6.7645879
3.5497971 8.5675774 7.0731044
3.6864522 8.9631872 9.3713837
3.6663034 8.6729612 9.5555716
3.8204169 9.2255516 0.74076444
3.7584815 9.0760221 1.3171731
3.5112176 9.0876493 1.9402403
3.978879 9.0931845 2.4564414
3.9686575 9.4793329 3.47475
3.6781225 9.0426874 3.6502397
3.5332556 9.3986597 4.3328896
3.6962047 9.1801109 5.1335392
3.8879526 9.1183176 5.5987115
3.9568865 9.425704 6.3728261
3.8277409 9.4276676 6.5664124
3.6459568 9.3817101 7.0557919
3.9896605 9.3961401 7.7177496
3.5106671 9.1425505 8.0543671
3.8929834 9.5211811 0.67025554
3.9397585 9.7201767 1.2186764
3.624969 9.6735535 1.7814558
3.957845 9.750597 2.1214819
3.5480175 9.5044384 2.5566177
3.6552854 9.6624842 3.3284853
3.7152109 9.6143427 4.1285315
3.5426733 9.9766703 4.658761
3.9486649 9.5666084 5.2142787
3.7193723 9.6136942 6.276226
3.8583779 9.7675333 6.6047316
3.5916033 9.8036985 7.1693273
3.7264869 9.6691551 8.1646805
3.7153955 9.5291758 9.9552069
4.2215176 0.12609959 0.44567955
4.0612645 0.28482759 0.89079553
4.0755935 0.0055758283 1.6499517
4.0995398 0.079023771 3.2586875
4.1771669 0.18476397 3.8850102
4.4558969 0.4698604 4.6708355
4.4179878 0.19295973 5.7865858
4.3594027 0.28555271 6.7092266
4.4993582 0.36216274 7.9652472
4.4400315 0.33556992 8.4479275
4.2110453 0.22716604 8.5896606
4.0088444 0.19676538 9.6562147
4.1075268 0.58023059 0.62312359
4.0858612 0.92458248 1.2699041
4.2271833 0.88093489 1.9148424
4.1961117 0.95534587 2.0920703
4.3661323 0.51162487 2.9038849
4.0341363 0.7833218 3.321656
4.4195995 0.72183841 3.991513
4.3510723 0.80310977 4.0938396
4.3020172 0.58737564 4.5314255
4.2979894 0.75478947 5.3968792
4.0713377 0.78632247 5.8290701
4.4725189 0.59585899 6.1982346
4.0059319 0.62400377 6.7091994
4.1013117 0.75580454 7.1957011
4.2537069 0.72822309 8.1267529
4.376421 0.97048068 9.4476767
4.1587553 0.77216423 9.9086657
4.3372397 1.0800774 0.48102853
4.0576968 1.2242619 0.55727237
4.1205597 1.4034529 1.1844311
4.1402588 1.1167262 1.887423
4.1283174 1.4808046 2.2819383
4.0553808 1.3511624 3.3334284
4.4832387 1.4251567 3.6815515
4.1246004 1.0197074 4.0483603
4.0992455 1.3972242 4.6055903
4.0993681 1.2580055 5.2884817
4.0166683 1.4044732 5.7703867
4.0310402 1.1418904 7.9004297
4.4764929 1.0744457 8.3499565
4.2575889 1.0392369 8.6260347
4.0500154 1.0156071 9.0652761
4.2535977 1.0972234 9.7741976
4.079576 1.65958 0.08410497
4.3561482 1.5391892 0.69500619
4.4332972 1.5296615 1.1674024
4.0509777 1.5330242 1.9228076
4.0551071 1.7177302 2.124738
4.0224819 1.7818354 2.8944113
4.0075345 1.8935754 3.3330665
4.359612 1.6522844 3.9922214
4.1917243 1.5118616 4.1539965
4.4475217 1.8037133 5.4660487
4.0829682 1.715559 6.0419245
4.3296299 1.5277193 7.2581692
4.3915825 1.7856836 7.7784853
4.4932218 1.7939751 8.0195103
4.493948 1.560627 9.0182343
4.2175531 2.0731232 0.1559654
4.0148873 2.4361701 0.86769223
4.2090206 2.4656396 1.1261019
4.386055 2.1027069 2.1011548
4.1503801 2.306896 3.2274411
4.2751398 2.1259949 3.6325457
4.1878147 2.0448852 4.1489606
4.4862413 2.3279371 4.6604328
4.06953 2.282625 5.4915562
4.3056393 2.0078602 5.9212942
4.1143856 2.2269902 6.3426762
4.1870346 2.3808541 6.8339801
4.1515198 2.189822 7.6699057
4.3348761 2.4165711 8.1002331
4.3428984 2.3714223 8.8868408
4.0492039 2.4202976 9.0180416
4.3508015 2.5434852 0.0034098094
4.1022072 2.9699726 0.62914646
4.1281509 2.6561885 1.3256822
4.3332596 2.5346003 1.7732244
4.247498 2.7850327 2.485378
4.0442805 2.6084995 3.535635
4.1250367 2.8568149 4.1473742
4.096992 2.5061204 4.7817297
4.0909319 2.5658188 5.2199802
4.2371616 2.6400182 5.792716
4.3398829 2.7587929 6.4289327
4.3766661 2.9309189 7.035234
4.4026051 2.6136615 7.7569647
4.0509019 2.8860574 8.4190187
4.1162553 2.9972286 8.9869194
4.0701885 2.6120095 9.0376167
4.0636516 3.2608089 0.27960235
4.166821 3.4852993 1.0208144
4.247869 3.1638992 2.406194
4.2349248 3.3573296 2.6315284
4.3449993 3.1490359 3.2744093
4.1726475 3.1903853 3.8544903
4.1884909 3.4593523 4.2789717
4.4500952 3.3315086 5.1072984
4.050066 3.1123424 5.6397638
4.258924 3.4207759 6.319737
4.2184896 3.0226924 6.5624275
4.3952994 3.4052906 7.1652822
4.1358356 3.4268854 8.3866396
4.3844447 3.1708028 8.8739634
4.3737545 3.0780129 9.0866394
4.2708068 3.0269909 9.8946781
4.2617202 3.5798082 0.21472767
4.2350225 3.8736706 1.0930508
4.1417804 3.6955223 1.9177324
4.3345556 3.8156927 2.4845643
4.0088749 3.9195437 3.3756204
4.1122108 3.7061598 3.9088988
4.0308676 3.8915701 4.0825291
4.4923563 3.772275 4.9172773
4.0645461 3.8705935 5.2020082
4.2542353 3.8014932 6.416441
4.2996912 3.5188727 6.8803263
4.3286934 3.8838973 8.196867
4.4374065 3.7160208 8.9669313
4.0249195 3.5597987 9.5050907
4.1846166 4.3540282 0.89189827
4.135479 4.1320057 1.0449306
4.2640328 4.4625788 1.7095213
4.3000898 4.4632549 2.0318613
4.4291692 4.3183603 2.5687599
4.0395517 4.0147643 3.3141732
4.4322338 4.4396644 3.9636362
4.2642741 4.301147 4.661818
4.1745138 4.3093715 5.5150423
4.1391745 4.2900238 6.0270543
4.0866709 4.1747437 6.5306811
4.0456805 4.0934172 7.37606
4.1452036 4.0417128 7.8087621
4.4721026 4.424561 8.0491543
4.2061353 4.2508564 8.5253344
4.2428765 4.2243128 9.3804502
4.1961246 4.096293 9.8462906
4.1041093 4.5252094 0.047113042
4.4684725 4.5415697 0.94764757
4.4407678 4.8384628 1.1637934
4.1150923 4.5359392 1.7815553
4.3430576 4.7878313 2.6641068
4.2310944 4.890501 3.024199
4.1451941 4.964438 3.7500932
4.0474219 4.5573192 4.4675584
4.0638785 4.6955199 4.6015329
4.3456988 4.5501833 5.2619619
4.3008418 4.9375992 5.6405249
4.2351599 4.8362455 6.2184906
4.35109 4.5175853 6.6884089
4.0992317 4.6583791 7.952651
4.3914576 4.5968833 8.4551096
4.1636124 4.6490483 8.6875219
4.3637176 4.7000022 9.4220734
4.318584 4.7800722 9.5192614
4.2820954 5.2703471 0.90365762
4.458849 5.4629512 1.2541654
4.0741224 5.4515862 1.7499158
4.4748459 5.1771159 2.2905116
4.448451 5.2069578 3.2225931
4.0812955 5.4769011 3.9710722
4.0361843 5.005847 4.5362511
4.2084641 5.0531101 5.0875754
4.0208697 5.0442944 5.5259471
4.0787373 5.2186446 6.3323994
4.3184075 5.2688951 7.895925
4.0416489 5.0605083 8.2552013
4.2918725 5.0054665 8.5737
4.3401475 5.4710903 9.0125628
4.4337916 5.6155152 0.0516394
4.3595438 5.9334855 1.2125672
4.2306366 5.8687539 2.6951768
4.4943953 5.7047815 3.3104956
4.3526168 5.6480651 3.9447327
4.3383727 5.6355858 4.0676165
4.1886244 5.8196216 4.5705543
4.229723 5.9752617 5.0851245
4.0303054 5.5717888 5.9820499
4.2608509 5.8730021 6.0094767
4.0674629 5.5579705 6.6664991
4.4109898 5.9713879 7.9293451
4.1475735 5.6575804 8.3702173
4.0558677 5.7552156 8.942524
4.0743279 5.6842637 9.2380886
4.208086 6.4283204 0.12337938
4.0713482 6.290422 1.4313569
4.4116254 6.2798958 2.2480412
4.2393818 6.1015086 2.8238046
4.3359575 6.4317331 3.0334985
4.3165202 6.0579515 4.3069596
4.3288951 6.1372204 4.578723
4.2383604 6.0344296 5.3605022
4.3301125 6.009233 5.6360722
4.2669206 6.4714775 6.2855649
4.3256903 6.3515925 6.5948339
4.3679724 6.4308405 7.0157342
4.3152499 6.3767409 7.6795363
4.0735917 6.0717649 8.2775145
4.2196922 6.2742252 8.8941813
4.0757699 6.0826511 9.2418394
4.0954947 6.1389542 9.7734365
4.3229136 6.7515798 0.34024689
4.4662471 6.7472243 0.95076752
4.0877662 6.5331106 1.4400123
4.2189536 6.7070637 2.6927962
4.0587864 6.9031739 3.1496258
4.0538216 6.5406461 4.4277325
4.1710906 6.9763374 5.55441
4.0991969 6.9933648 6.1409435
4.1960626 6.9475121 7.1577139
4.377789 6.7344408 7.6579361
4.1434488 6.9338522 8.1384993
4.3873963 6.9059153 8.5617867
4.1268101 6.8012242 9.3894463
4.1054182 6.9869223 9.8356781
4.4675102 7.3180618 0.27703986
4.1195245 7.3668089 1.0113373
4.375524 7.0754757 1.5591958
4.2828779 7.0319915 2.0813518
4.1826172 7.3145132 2.8183384
4.3148084 7.4732552 3.9943185
4.4734464 7.4957137 4.2622242
4.257669 7.307847 5.3468566
4.2190671 7.1212602 7.1168489
4.1005487 7.4294109 7.5476031
4.3817372 7.4094515 8.2918215
4.0781336 7.2285528 9.4888849
4.4795547 7.5701518 0.92077863
4.0710726 7.6936364 1.9843552
4.2293205 7.9592409 2.4983907
4.1363487 7.6482015 2.7854223
4.3240523 7.89535 3.5705695
4.2411604 7.7817945 4.1508341
4.051805 7.8280573 5.732173
4.029202 7.7962155 6.0109086
4.4706144 7.8534107 6.697422
4.0597935 7.5700941 7.226615
4.1803451 7.6255441 7.7338848
4.1481228 7.668488 8.2945175
4.4956021 7.5793004 9.6918974
4.3156347 8.4929924 0.4816213
4.2354507 8.1847935 0.79781985
4.0345569 8.3152533 1.3501785
4.1574626 8.0778542 1.9800754
4.1497469 8.3884888 3.2282805
4.0919447 8.3655682 3.8275816
4.4527168 8.152483 4.2682285
4.0963163 8.418273 4.8198123
4.1401124 8.3032513 5.1041055
4.2692652 8.0739651 5.7182274
4.1997232 8.0305595 6.3390932
4.0180259 8.1878462 6.9522943
4.0903864 8.0754204 7.2664504
4.1175075 8.3297529 8.4071054
4.2366543 8.0821877 8.9327421
4.2977719 8.1491394 9.1239843
4.3783588 8.0804052 9.9522963
4.4595094 8.7500944 0.84434146
4.3873348 8.7283306 1.4441274
4.1193867 8.7842216 1.8919971
4.0114746 8.689455 2.4269805
4.0330763 8.9753447 2.9680464
4.21381 8.6623631 3.3967149
4.2841024 8.9240274 3.6127303
4.1525259 8.9693918 4.4432397
4.352098 8.6048298 5.2217441
4.1643424 8.5969439 6.3226967
4.3212953 8.9132185 6.9347267
4.4212909 8.6798363 7.9076486
4.2499022 8.7961874 8.2986956
4.3835888 8.8104343 9.259387
4.3688707 8.535491 9.8146152
4.0756598 9.4842377 0.078510419
4.2007294 9.19203 0.83403587
4.2338867 9.0787926 1.0158665
4.4981871 9.1113329 1.9315523
4.2191653 9.2044487 2.1792917
4.0429678 9.0347977 3.2619488
4.1302195 9.2478743 4.1905551
4.0936728 9.0381927 4.8009005
4.0499969 9.469286 6.3366914
4.4891396 9.1881628 7.3033071
4.2435174 9.0022984 7.9454093
4.0105505 9.2156487 8.3661585
4.277545 9.1982708 8.9295378
4.0927057 9.460928 9.1477022
4.3147006 9.157526 9.9861889
4.3595724 9.5169172 0.75568819
4.4470959 9.7620544 1.5901766
4.186326 9.8421621 2.0130227
4.1191487 9.5806179 2.9017096
4.4878063 9.8026161 3.2346714
4.366055 9.5767326 3.9040341
4.4475236 9.8656254 4.493989
4.4823236 9.8096189 4.8775611
4.1977363 9.8906021 5.5042973
4.2809715 9.8938837 6.9655137
4.067884 9.5148048 7.1501102
4.0037308 9.8038979 7.5990109
4.4795856 9.5538969 8.5837688
4.4268284 9.9774389 9.4966164
4.9841051 0.10296922 0.11840165
4.8270478 0.065140679 0.50869787
4.9453897 0.40908143 1.6520014
4.7339315 0.36121273 2.0610361
4.5629268 0.033156797 3.4494851
4.9319777 0.31772611 3.5602589
4.7596116 0.26459613 4.1559038
4.7304707 0.46397346 4.6277323
4.9493365 0.18492997 5.2767982
4.9693022 0.49250489 5.6629591
4.5776081 0.15459234 6.7893481
4.8619561 0.12119904 7.0907145
4.9517412 0.13752198 7.6325893
4.5951467 0.22048123 8.1374321
4.7272706 0.35613135 8.9119263
4.7373757 0.46607739 9.4568214
4.8187566 0.020516288 9.766964
4.9807858 0.87772858 0.8942163
4.9326568 0.97780478 1.0970856
4.9736576 0.66098839 1.6787356
4.91605 0.70235425 2.0156839
4.8797674 0.96184015 2.5759819
4.6267943 0.73733622 3.848
4.757782 0.77441919 4.2699366
4.6002789 0.62481362 6.1090083
4.8147378 0.53973699 6.8672132
4.8093615 0.78003818 7.5639668
4.7545977 0.74498719 8.0847187
4.5757565 0.8060019 9.0189495
4.9468307 0.55176646 9.8899851
4.6857386 1.3389791 0.54936111
4.8294601 1.2183909 1.0702337
4.5579457 1.0498571 1.507993
4.6617808 1.1286891 2.1998694
4.6200023 1.2459933 2.8570821
4.878581 1.3194618 3.2855997
4.8065901 1.3183773 3.971976
4.7106819 1.370663 4.6800761
4.7212257 1.2333623 5.317142
4.6699238 1.4397258 6.0468073
4.7426996 1.3930061 6.7195134
4.5648055 1.0121562 7.3958688
4.7156997 1.4785988 8.9810991
4.6094732 1.0543873 9.1246405
4.9140062 1.1690913 9.9969378
4.9738569 1.8128762 0.32970715
4.624908 1.5327446 0.563797
4.8001356 1.8308158 1.1475751
4.8402677 1.5017449 2.3967719
4.6600823 1.6961633 2.6209366
4.8665857 1.8563653 3.2462511
4.9850903 1.8136979 4.4346037
4.7333317 1.7089033 4.7962465
4.7108049 1.7063731 5.1156878
4.9350863 1.879065 5.8684235
4.6723294 1.5653512 6.6614647
4.5611672 1.5772241 9.7473068
4.5269065 2.4637704 0.72571427
4.5960331 2.0908701 1.297431
4.8940315 2.3031371 1.9915955
4.9472876 2.3035064 2.3522313
4.801465 2.3283539 2.5714576
4.6143026 2.2560961 3.2327685
4.9316783 2.3942552 3.5862069
4.5885978 2.4551425 4.1196804
4.8128848 2.2339621 4.527185
4.8474121 2.2144229 5.3277245
4.8907189 2.4775333 5.7479258
4.894619 2.1258698 6.4831424
4.9009757 2.1325631 7.2604733
4.7704172 2.2458711 7.8889799
4.8719983 2.4658782 8.3047113
4.9308891 2.2146385 9.3665943
4.6371884 2.1896992 9.7717361
4.5691714 2.5530541 0.32022062
4.5939612 2.8992774 1.4861386
4.7376304 2.8530824 2.2671039
4.8191218 2.5885811 2.8634772
4.9270568 2.7401078 3.5574272
4.6619635 2.8210039 4.0278769
4.6245937 2.7706835 4.5925503
4.8598061 2.8788044 5.2429972
4.8807201 2.9145808 5.6710553
4.8080535 2.9940495 6.3650608
4.8094392 2.5523841 7.4982524
4.7122607 2.7825842 7.6327877
4.6986856 2.625859 8.3327179
4.6542807 2.6264029 8.9689922
4.9580345 2.7103009 9.4480801
4.9929838 2.5127544 9.8683968
4.9141378 3.0865886 0.067619301
4.6305723 3.315886 0.58641022
4.9696746 3.3430755 1.4767821
4.5963449 3.0865014 1.7210095
4.5376434 3.1182876 2.0075874
4.9559851 3.1162121 2.7293882
4.5407605 3.1383705 3.5269341
4.7931085 3.1150169 4.3483171
4.6140141 3.1371915 4.7268715
4.8383574 3.460717 5.2197094
4.7530971 3.1894662 5.5598454
4.7012539 3.1265821 6.1404314
4.8213487 3.0224915 6.6167765
4.9050903 3.1992004 7.1380739
4.5597963 3.0408823 7.6650357
4.932991 3.3437319 8.1328945
4.7430663 3.427458 8.8591948
4.7369738 3.1525655 9.0140839
4.7672424 3.0602036 9.9513807
4.653439 3.5479479 0.41876042
4.9183679 3.5858812 0.83152139
4.9137993 3.5519199 1.1396024
4.9416714 3.5238786 1.7140241
4.8384433 3.859549 2.5444391
4.855381 3.6646304 3.0375006
4.9378529 3.5120115 3.8840439
4.6665754 3.5587034 4.3755445
4.925283 3.8159156 4.5262961
4.5266361 3.6121609 5.4364834
4.8508234 3.6882453 5.6045189
4.7466078 3.8073325 6.7735763
4.6615639 3.8402491 7.0233431
4.6697426 3.926914 7.777319
4.5063677 3.8424418 8.049324
4.8398075 3.9003754 8.9568348
4.5828524 3.5869436 9.4660959
4.904192 3.6276867 9.8435612
4.5583758 4.2504334 0.096661896
4.8333859 4.4022856 0.90076089
4.5390668 4.2068987 2.281847
4.8444958 4.369246 2.6224775
4.5550904 4.4986944 3.4196165
4.8118677 4.2314482 4.3570418
4.936945 4.1202874 4.5642166
4.605792 4.4413061 5.2608728
4.9451981 4.2032852 6.5982246
4.5874968 4.1326914 7.4263859
4.9239368 4.453074 7.5633101
4.9995127 4.3033266 8.1605377
4.8702483 4.2230911 9.3769264
4.6228542 4.0791521 9.6734972
4.8793011 4.993412 0.21967652
4.744678 4.8520732 1.1256163
4.7672734 4.8522334 1.8222178
4.9243126 4.6351376 2.194591
4.9243121 4.8519478 3.1770062
4.824749 4.6395917 3.6835384
4.7307487 4.9915428 4.3397422
4.8301096 4.5891852 5.120461
4.8610301 4.542388 6.1821055
4.8120852 4.5496507 6.6069722
4.8598022 4.5397305 7.4046316
4.7179074 4.6334023 7.817275
4.9461613 4.6974864 8.685792
4.6459308 4.6917229 9.4004765
4.7965722 4.9498506 9.7133093
4.8333774 5.3926282 0.2241742
4.813333 5.2216535 0.92787027
4.5266957 5.1391764 1.2961819
4.5019593 5.3112974 2.4175801
4.5562148 5.2978659 3.0227563
4.6882243 5.124649 3.7507699
4.7863941 5.3031592 5.1195145
4.5477686 5.0929871 5.5978007
4.6573324 5.3041005 6.0543451
4.727767 5.3500347 6.5578823
4.6607842 5.2344728 7.6246128
4.5497713 5.0491982 8.1525116
4.7850151 5.3292427 8.7180309
4.851284 5.4341512 9.3855629
4.6063085 5.3200054 9.5931549
4.9948282 5.8328223 0.17088853
4.9008961 5.6009264 1.4023591
4.7081871 5.9636254 1.8371928
4.9955568 5.7389493 2.3154392
4.6996193 5.8447552 2.5691147
4.8082752 5.8506145 3.4075952
4.8709102 5.6910377 4.8197322
4.9040775 5.8343191 5.241971
4.8195114 5.745501 5.7174106
4.6222754 5.8154917 6.1971622
4.9829202 5.6813011 6.8591251
4.7385817 5.7356305 7.248301
4.9842381 5.9944134 7.7508688
4.504097 5.6086736 8.3103657
4.9787798 5.7742238 8.7702789
4.8792334 6.4637256 0.17559412
4.5722437 6.1693816 1.8849654
4.5464606 6.3728065 2.1647546
4.6228604 6.1468363 3.444819
4.9229069 6.0082645 4.6590314
4.5619936 6.1490135 5.2497888
4.8614116 6.4794965 5.734333
4.6791673 6.2888994 6.6214085
4.5348582 6.3515244 7.7975674
4.6232185 6.4188232 8.5316696
4.6408744 6.9568739 0.42065239
4.785748 6.9383168 0.99850804
4.7126236 6.6739345 1.3463647
4.9743404 6.7544293 1.5870593
4.744422 6.6193056 2.1835523
4.8151636 6.9663477 3.0046434
4.7082753 6.8448086 3.9055462
4.6365256 6.8663473 4.2362685
4.7425976 6.6708093 5.4805589
4.5372849 6.7178922 7.3683639
4.9310756 6.6628594 7.5528526
4.5178895 6.7435222 8.5998802
4.9011922 6.6863213 9.7101316
4.9111633 7.0589466 0.51647168
4.8578186 7.4582343 1.4914221
4.5701842 7.232657 1.9330032
4.6085315 7.2229347 2.076849
4.6784678 7.4877415 2.9862332
4.7314463 7.2531939 3.8124392
4.9652262 7.0803933 4.2985258
4.6146007 7.0855708 4.7407742
4.9679594 7.4989109 5.6957569
4.8788471 7.1538596 6.1313443
4.5324984 7.4260569 6.8519011
4.7055855 7.1247253 7.3493886
4.9729939 7.2089968 7.7207971
4.6618552 7.3154569 8.0505257
4.8558531 7.1844492 9.4758215
4.870574 7.023025 9.5746746
4.9168534 7.8906751 0.31819928
4.6500807 7.994297 0.73613012
4.7239313 7.5598502 1.1166832
4.6059985 7.5499125 2.293314
4.9180412 7.8366394 2.6380782
4.6326661 7.515172 3.256979
4.5759063 7.5936003 3.7449453
4.9028268 7.8948879 4.6239128
4.9186234 7.9751754 5.2736034
4.9027529 7.6949673 5.9660983
4.5605888 7.6727681 6.4530902
4.6185188 7.5037045 6.9976473
4.7124438 7.9299541 7.2863412
4.5078506 7.9326305 7.539011
4.7156572 7.9068274 8.649703
4.7043748 7.5903807 9.1646347
4.9394388 7.7272139 9.8217802
4.8202114 8.2026691 0.67549318
4.8797379 8.4313602 1.3602089
4.9624629 8.2332191 1.5291476
4.7036161 8.1771221 2.0630114
4.7368269 8.1860981 2.504477
4.8404899 8.1885424 3.024621
4.8153262 8.2936878 3.9595962
4.6760945 8.2546959 4.0191541
4.7218399 8.0489655 4.935811
4.9310412 8.4402475 5.2676973
4.9155431 8.3383865 6.1107588
4.9151859 8.4049339 7.0138311
4.8270254 8.1667519 7.8474422
4.6700678 8.1124153 8.9176855
4.991931 8.2880955 9.5929766
4.8208003 8.7041054 0.24128425
4.7956119 8.7957211 0.95338845
4.9308414 8.8751488 1.1648639
4.7460446 8.7922277 1.5779817
4.9057894 8.9754419 2.8161087
4.9939847 8.7966738 3.4966514
4.6793919 8.5612183 4.1056356
4.5756903 8.9229164 4.7840223
4.5672269 8.6598225 5.0051789
4.8284206 8.9242592 5.9693222
4.7325811 8.9328871 7.1057539
4.676527 8.8545647 7.8719149
4.9492602 8.9292116 8.3513594
4.5255489 8.9309683 8.7112055
4.5097985 8.5064716 9.2192583
4.5923333 9.447854 0.40626127
4.5340514 9.177618 0.55166191
4.8812294 9.0256462 1.3616481
4.6119657 9.0441761 1.6908038
4.5608559 9.3919106 2.3736587
4.717875 9.2282476 2.7820945
4.9462991 9.4162703 3.4774737
4.9465351 9.4543734 3.683115
4.5292215 9.1630735 4.3081951
4.6292706 9.4588747 4.6503453
4.5191522 9.1436253 5.1320391
4.6130881 9.4980726 5.7290936
4.5127301 9.0370512 7.4832211
4.9191504 9.2736082 7.9840069
4.5069985 9.1057253 8.5847826
4.9840317 9.4748087 9.323843
4.6360927 9.0870018 9.7011051
4.6672277 9.8400345 0.63272238
4.817791 9.9284153 1.402169
4.6715393 9.9009953 1.9738883
4.5921974 9.9037628 2.4888828
4.591455 9.7337389 2.9139555
4.5389729 9.9293404 3.3612511
4.6147571 9.5481577 3.763685
4.5610094 9.9422398 5.4577379
4.9839549 9.8920889 5.7737284
4.9916778 9.5274849 6.9639149
4.6632328 9.7844734 7.2693939
4.8799143 9.588913 8.1380138
4.6248636 9.5363312 8.8606167
4.7324686 9.6961632 9.3200006
4.6681767 9.8670883 9.7313967
5.2815747 0.46563679 1.0696485
5.0850229 0.19949318 1.723888
5.2706475 0.33417606 2.2152278
5.1330543 0.23658521 2.7985144
5.2167563 0.22878589 3.1698382
5.4493275 0.24690913 3.8006713
5.3682189 0.46572566 4.2690248
5.0229764 0.23088098 5.6825991
5.3425126 0.46417528 6.8335366
5.3145595 0.35021052 7.0445437
5.2177706 0.48399138 7.952209
5.4091902 0.11881445 8.6358032
5.1657767 0.13925223 9.6292963
5.2933302 0.66540647 0.0684691
5.3800244 0.72955078 0.70335019
5.191082 0.77270031 1.4140612
5.3468781 0.89447194 2.0774288
5.3187823 0.58477634 2.6422548
5.0550799 0.86974561 3.3410931
5.1554828 0.70943743 4.3596687
5.3976345 0.74561948 5.1646442
5.2613239 0.99983978 5.5983753
5.4734588 0.60357141 6.0226879
5.2977018 0.63295686 6.9753528
5.1532793 0.88261431 7.3025222
5.1148481 0.79114318 7.9776626
5.3158464 0.57290328 8.4055862
5.4000053 0.86908984 8.7776203
5.4401131 0.85040939 9.3433628
5.1171308 0.88484162 9.9145403
5.360857 1.3194253 0.33882317
5.0496793 1.3495625 0.54657805
5.3953667 1.0844147 1.4342207
5.235218 1.2296627 1.8933928
5.2834969 1.2298017 2.0668259
5.4470496 1.10581 2.5510633
5.4704566 1.1022967 4.8454313
5.18013 1.2172968 5.3593063
5.4255509 1.1591158 6.1019015
5.2043476 1.2667875 6.8935733
5.0379558 1.0981567 7.1221695
5.3172741 1.1579757 7.77701
5.4553709 1.425249 8.4971962
5.2475924 1.0593123 8.8075027
5.3885479 1.0043563 9.2091236
5.0587316 1.3403885 9.5350475
5.2303548 1.9106287 0.44964698
5.1429653 1.8763583 0.75810599
5.0043926 1.7693734 1.498997
5.1847467 1.5902513 1.7007221
5.109273 1.7275832 3.2455044
5.4958572 1.969908 3.7605181
5.34096 1.6729146 4.4730186
5.0100756 1.5259486 4.5316
5.1001496 1.6731262 5.1895027
5.3763876 1.6894343 5.6677012
5.0669866 1.5089896 6.0664759
5.2000957 1.8068373 6.7508507
5.3316584 1.9907688 7.3975043
5.0385709 1.5673521 8.236474
5.0921149 1.8408347 8.7738075
5.3021927 1.8651861 9.7847128
5.4938006 2.0682118 0.87724781
5.4640718 2.1281283 1.8813933
5.2065701 2.1810195 2.0902071
5.0073433 2.3141127 2.5839307
5.1214628 2.2111893 3.8729839
5.4793172 2.4776127 4.9061704
5.4037981 2.0018389 5.0857215
5.2150431 2.0034306 5.8303432
5.2521105 2.1912076 6.0338092
5.1058817 2.0557349 6.7218046
5.1587849 2.4465337 7.8725309
5.4972939 2.0418103 8.1399593
5.1316066 2.0957932 9.5886478
5.4414601 2.9911661 0.27467686
5.1799102 2.7810116 0.59264874
5.049458 2.7847538 1.2763617
5.4462619 2.6260948 3.0355098
5.2625237 2.8191459 3.5246971
5.3843188 2.837913 4.1251392
5.1966124 2.8548388 5.6566181
5.4761958 2.6095786 7.4618678
5.3911486 2.8633308 7.8874493
5.020834 2.7146606 8.2559004
5.3269901 2.6375451 8.9851246
5.0903997 2.8239555 9.9554358
5.0389194 3.3527718 0.65974188
5.4687796 3.0382445 1.0589014
5.4897766 3.2063546 1.8827083
5.0339007 3.4982033 2.2465806
5.351656 3.2021103 2.7111163
5.2712088 3.1383059 3.361053
5.0809221 3.4045949 3.8156185
5.4595795 3.4466648 4.1274934
5.4990644 3.3598793 4.6015158
5.3543515 3.3147171 5.8183947
5.2419987 3.048496 6.45819
5.0709219 3.3366516 6.8257322
5.2823153 3.4221468 7.4559379
5.3836675 3.0716226 7.6692653
5.2548451 3.3083754 8.35709
5.0638361 3.0433173 8.9238558
5.4041166 3.2864549 9.5980654
5.317471 3.9845181 0.096449047
5.1708789 3.8253641 0.75323969
5.4349852 3.8243814 1.4925106
5.0819025 3.8399193 2.3211334
5.3749776 3.8987403 3.2639399
5.4183264 3.8724849 3.845078
5.3282566 3.7201178 4.1779747
5.3530121 3.8004663 5.1594257
5.1683874 3.5379016 5.9740872
5.2446356 3.5548897 6.014575
5.2740917 3.8756351 6.5313625
5.079915 3.6691217 7.5353947
5.1423578 3.6137316 8.0879211
5.196733 3.80743 8.8015385
5.0012503 3.8857508 9.2544537
5.2681708 3.904355 9.978076
5.4590268 4.0644364 0.2854335
5.0246143 4.4933224 0.89132124
5.0314431 4.4057579 1.025246
5.0091057 4.1304593 1.7322328
5.0855389 4.3587308 2.1001086
5.4805593 4.0407963 2.6752923
5.1945381 4.0442376 3.0059111
5.2745481 4.3973703 3.7762973
5.0348687 4.4490285 4.2702227
5.2549534 4.3447442 4.6075239
5.041235 4.4412446 5.1128168
5.4066348 4.3879251 6.2151766
5.4310756 4.4363852 6.5413723
5.3113594 4.49681 7.4233036
5.1669316 4.0214205 8.0707054
5.0599422 4.0897455 8.6737804
5.2410431 4.41749 9.8554153
5.2990665 4.9346123 0.93795985
5.1965356 4.7819953 1.299889
5.2750235 4.9113021 1.7530357
5.2251577 4.5056214 2.418448
5.4835553 4.5315914 2.6040735
5.4929881 4.741652 3.7251973
5.465868 4.5006733 4.359292
5.1892223 4.6445251 4.5941381
5.2648439 4.8139787 5.3995361
5.3769579 4.6590366 5.8263254
5.0454187 4.9757881 6.0622644
5.0573177 4.533391 7.9814329
5.4738607 4.5990682 8.0377855
5.1609378 4.6238766 8.8610935
5.4512119 4.9720078 9.2398186
5.4245882 4.6641006 9.6614361
5.3202348 5.1148272 0.19492364
5.3332481 5.3472052 0.90380311
5.4053202 5.0752072 1.9968138
5.1315732 5.1502824 2.0746412
5.0948553 5.178484 2.5158229
5.2746744 5.0047278 3.9365449
5.4817352 5.4069309 5.3526659
5.3380594 5.3559728 5.5545664
5.0873117 5.4420719 6.7391996
5.1521535 5.4550338 7.5697999
5.2446623 5.4219551 8.3549795
5.1648808 5.1986289 8.5234032
5.145648 5.2132077 9.2117643
5.425704 5.1799946 9.7427444
5.4586315 5.9230108 0.39621365
5.1051035 5.6227012 0.53736639
5.1529303 5.6270533 1.0674855
5.2226491 5.9974003 1.9591088
5.3804402 5.6109242 2.6937251
5.0606146 5.5714278 4.2685943
5.0097351 5.5811481 4.917583
5.3852015 5.5156965 5.0939217
5.4393892 5.9743414 5.7054367
5.4661899 5.7085061 6.0837831
5.4511681 5.9088144 6.9868302
5.3835163 5.5603814 7.2857523
5.3317442 5.9001875 7.9626303
5.1650786 5.8390098 8.050128
5.1001549 5.8972931 8.7179632
5.3491411 5.7345843 9.2912884
5.0906014 6.4116721 0.48873913
5.0093369 6.3389325 0.74616063
5.1249628 6.1317019 1.0260535
5.0455327 6.3535409 2.6317677
5.4555058 6.0611515 3.324513
5.4135828 6.4558439 3.9680285
5.0726981 6.2906146 4.4273024
5.050725 6.492836 4.7840233
5.3534889 6.2588267 5.2454877
5.3936915 6.2824926 6.1991792
5.1722403 6.2649894 6.8087745
5.1417327 6.0892296 7.5402398
5.0651073 6.4949589 8.278697
5.0633774 6.3655977 8.7355185
5.4501367 6.2547307 9.4932184
5.3060446 6.084898 9.7002487
5.3893061 6.7861228 0.14273299
5.1525631 6.7489672 0.89169621
5.1099653 6.5320282 1.1563789
5.2679415 6.9117079 1.5158802
5.237885 6.9409447 2.6744177
5.4782457 6.5052452 3.176897
5.3145857 6.8936925 3.6480236
5.3832502 6.8398886 4.0873346
5.1680703 6.6409636 4.9854145
5.1858659 6.8232937 5.0272827
5.1364946 6.7150993 5.5727105
5.0369577 6.8378 6.4155917
5.3514681 6.8692069 7.2669463
5.4576159 6.6346316 7.5751948
5.3864789 6.7953978 8.5415277
5.1241827 7.1045108 0.36395258
5.0564098 7.2652917 0.52202964
5.2798605 7.0864925 1.1093575
5.4537292 7.2820048 2.2318249
5.3242998 7.0361204 3.1441717
5.0952978 7.2593212 3.8903344
5.3553352 7.2647724 5.2835889
5.3841968 7.2631798 5.9647751
5.2221537 7.3254924 6.157692
5.2512555 7.3242145 6.7614818
5.3657432 7.1795006 7.1280441
5.2615175 7.1536484 7.6151061
5.2817206 7.091784 8.0755415
5.1682467 7.0725036 8.7517042
5.0535831 7.4553461 9.2592897
5.0113373 7.1677036 9.611783
5.0625315 7.7578249 0.84837919
5.3444729 7.8199506 1.3558997
5.1747565 7.863667 1.8857465
5.2015495 7.7057748 2.0685439
5.3801246 7.9560323 2.8710766
5.1727195 7.5883942 3.236685
5.0219655 7.8438854 3.6749089
5.4339643 7.5186734 5.6970835
5.1104221 7.9535298 6.1410542
5.2813888 7.9306469 6.8984275
5.2813053 7.7653222 7.2441983
5.4828172 7.5089412 7.8954434
5.0078154 7.7663941 9.387289
5.0446501 7.778574 9.7065411
5.2817588 8.0774298 0.18600219
5.4302197 8.4260826 0.60578895
5.4346013 8.0241976 2.1188271
5.4724407 8.1632099 2.8886499
5.2247066 8.2445898 3.2457426
5.2121334 8.0624933 3.9581778
5.3382916 8.2145739 4.6246023
5.0193434 8.2628508 5.3615708
5.2593207 8.3925552 5.9412231
5.4463477 8.4370222 6.4616833
5.4801555 8.4795361 7.1352501
5.1825533 8.2539444 7.8422012
5.4402871 8.4822302 8.072402
5.0512786 8.4754095 8.5286818
5.2021794 8.2524128 9.320426
5.4073658 8.1716919 9.7940903
5.037838 8.8266325 0.77272183
5.2732587 8.9635382 1.1473553
5.3477583 8.98454 1.6709766
5.1704359 8.6949911 2.0820668
5.392561 8.6942158 3.2645595
5.4533844 8.9233713 3.5347824
5.2385798 8.5956249 4.9353757
5.0420113 8.5914774 5.77667
5.0726724 8.5993118 6.50666
5.2394218 8.6914902 7.1174345
5.3272572 8.7700548 7.9448743
5.4367151 8.7301502 8.0196247
5.4301033 8.9190063 9.6159325
5.2170382 9.0175228 0.49055722
5.0772672 9.3187466 1.2883459
5.1644225 9.1058121 1.8392521
5.3420382 9.495326 2.2839091
5.253397 9.4799223 2.7174282
5.3510971 9.2075167 3.1166525
5.0126629 9.1595783 3.8913746
5.3984413 9.3818836 4.3818069
5.1862454 9.3088837 4.7187572
5.1077948 9.4361649 5.0745287
5.4982815 9.2461805 5.5045128
5.3158226 9.1688576 6.2316074
5.2014518 9.1181631 7.2857471
5.2386522 9.4261494 7.7994967
5.2652621 9.3342266 8.258008
5.0319471 9.0484486 8.7557516
5.0159254 9.1141071 9.313508
5.1791859 9.4732342 9.5825233
5.2966318 9.5112534 1.9256245
5.2797327 9.616622 2.0280724
5.2714987 9.7528973 3.1792138
5.0710731 9.9410334 3.9675663
5.3864913 9.6751909 4.7765217
5.0325117 9.6137867 5.3582602
5.0636191 9.6614218 6.2841611
5.0229635 9.9177189 6.6221561
5.3146534 9.9176712 7.3334508
5.2041645 9.6436253 7.5948992
5.4119515 9.8665581 8.8454266
5.4946966 9.9393806 9.5989456
5.9183073 0.42160627 1.6202937
5.9714422 0.17954738 2.8111105
5.9791799 0.41266525 3.2196894
5.8835211 0.46088994 3.8786764
5.6962662 0.19922681 4.4977813
5.9268708 0.48902869 5.2291307
5.566216 0.27818191 5.8835516
5.6207366 0.15737599 6.2162094
5.9431005 0.094874993 6.9444075
5.867135 0.1389609 7.8697615
5.7638121 0.37852472 8.0140238
5.9986238 0.32925266 8.6651669
5.8010092 0.67018265 0.60606784
5.8993344 0.65242821 1.0402989
5.9643278 0.97931552 1.797513
5.7894735 0.94965732 2.8507366
5.6088648 0.74412876 3.1494226
5.7862415 0.94534689 3.5448337
5.9132152 0.5911113 4.57969
5.6757569 0.84013569 5.1671672
5.5176401 0.95756382 6.2771754
5.5522556 0.62273854 7.4671774
5.7359324 0.65817833 7.9289098
5.8886356 0.65087229 8.2353458
5.8735142 0.99041939 8.5824184
5.9080501 0.94466829 9.385334
5.9539852 0.93352801 9.5135756
5.7236347 1.3052802 0.19585118
5.93536 1.1445938 0.52070749
5.5369306 1.2713161 1.5167499
5.5047107 1.3405213 2.3035905
5.7776928 1.1065158 2.701086
5.9446979 1.011834 3.3893628
5.5230975 1.0882404 3.7459373
5.9405131 1.4725747 4.276237
5.7034054 1.126117 5.4749966
5.837975 1.030333 5.6031504
5.6896124 1.0903955 7.1192098
5.5616722 1.3384818 7.8756742
5.658514 1.0168306 8.1671209
5.873024 1.2606026 8.8913841
5.9939008 1.4093225 9.0112162
5.5813766 1.2150902 9.6019897
5.7246819 1.5044039 0.045745768
5.8832002 1.6798728 1.2921789
5.5422487 1.9506361 2.2249792
5.9644055 1.9701897 2.8013465
5.5357146 1.7984582 3.3163247
5.598567 1.9616078 3.7436771
5.9925628 1.526459 4.4068727
5.6279287 1.5512704 4.9888363
5.8981962 1.5191791 5.623817
5.5210786 1.8805872 6.1428289
5.9511142 1.8221806 6.6406336
5.815618 1.6530137 7.1520138
5.6197033 1.5287048 8.4471884
5.5707684 1.824285 8.9474888
5.9994216 1.5996776 9.1205683
5.814518 1.7971145 9.7222853
5.5715752 2.0379477 0.53318238
5.5745449 2.0687575 2.26212
5.5657673 2.2678204 2.5332298
5.8687501 2.28653 3.3889828
5.7674766 2.4096663 4.0602593
5.8797064 2.0465479 4.6335912
5.6419015 2.2881813 6.6016951
5.8319149 2.0427961 7.4738364
5.9466982 2.4466643 8.3389845
5.8485718 2.2071252 8.6713791
5.7781448 2.1895478 9.439086
5.8015661 2.8873882 0.97848469
5.6411057 2.78652 1.3003979
5.6711454 2.9040589 2.3726037
5.628345 2.5062103 3.4876606
5.8807697 2.8551028 3.688405
5.6456919 2.7938132 4.1711001
5.591959 2.9653695 4.5570717
5.9665031 2.8597546 5.6167459
5.7357655 2.5304887 6.3378053
5.9235625 2.9505944 7.2511458
5.7856836 2.6199179 7.8951273
5.9000964 2.8097887 8.7232018
5.5272474 2.9708562 9.2824955
5.6444602 3.2413733 0.40555125
5.9913821 3.1103895 0.8087129
5.6902118 3.0848503 1.0330268
5.9807467 3.49652 1.9706857
5.614315 3.094079 2.4153917
5.7139211 3.1465321 2.6163437
5.7954984 3.1244814 3.3524821
5.9158335 3.3594341 3.9087665
5.9214253 3.0809619 4.2903404
5.8773017 3.1486681 4.5619183
5.8123913 3.4852602 5.2397256
5.8654113 3.4513094 5.9431295
5.8489485 3.3428242 6.4466248
5.7273631 3.0130677 7.1418805
5.7695584 3.1884706 7.8842692
5.573576 3.1834097 8.3191824
5.6203842 3.4920981 8.8453846
5.5880289 3.4794383 9.2387209
5.6429458 3.0732632 9.7162752
5.9930177 3.8043191 0.12210469
5.8243556 3.6600187 0.61769217
5.614069 3.6300824 1.4080448
5.9127545 3.5342803 1.5641583
5.6807194 3.9704375 2.3773935
5.9548149 3.58395 2.7418146
5.6627769 3.9632967 3.0465209
5.8096576 3.5375652 4.1281996
5.6583471 3.9649477 4.8310847
5.7242908 3.5638723 5.0407715
5.8629541 3.7061672 6.027658
5.6461878 3.8307414 6.9934998
5.9697523 3.6036036 7.3403883
5.54987 3.6386535 8.6487083
5.8869438 3.9197924 9.6193171
5.9776635 4.4305224 0.33351794
5.9033804 4.4720707 0.61045325
5.6462674 4.2050166 1.2992381
5.5674152 4.0424833 2.2391253
5.73557 4.151083 2.830025
5.8610239 4.3678741 3.0660388
5.8054981 4.3118596 3.7151384
5.6745739 4.1072731 4.574039
5.7707858 4.3358793 5.4721289
5.5836935 4.274735 5.6222916
5.5491042 4.3961325 6.2482719
5.7157521 4.3300543 7.0419178
5.7190986 4.2392511 7.6767454
5.6574526 4.3078508 9.4031658
5.8270984 4.4637341 9.817627
5.6939392 4.8601384 0.16994643
5.7303171 4.511302 0.85582483
5.8230758 4.6272049 1.1102006
5.8965807 4.6143713 1.6650403
5.6681452 4.8662357 3.4055555
5.9613571 4.5531678 3.9033194
5.5354109 4.6558709 4.1407261
5.824676 4.5256405 4.5870199
5.9511166 4.7307143 5.5670404
5.7221169 4.8728242 6.2148433
5.6800632 4.8312883 7.0707107
5.5758963 4.8453121 7.8868923
5.5449276 4.7476916 9.3733921
5.7352681 4.5480289 9.8998652
5.9187469 5.2144647 0.45468959
5.910841 5.188941 1.3758297
5.5271254 5.3027635 2.0398543
5.6517162 5.1888332 2.5120533
5.766305 5.2899652 3.4242816
5.685915 5.3656683 4.4937191
5.7678604 5.0317245 6.3156266
5.8791733 5.1379972 6.8994322
5.8151112 5.0203295 7.5416365
5.9323387 5.0777044 9.5105333
5.6573753 5.8656044 0.011585383
5.6317024 5.9981699 0.99980468
5.657001 5.9090447 2.4686322
5.5862074 5.9429092 3.3920648
5.9561782 5.5873728 3.9177346
5.8640094 5.5172567 4.3677397
5.6705008 5.6785364 5.2022433
5.8878903 5.9496613 5.5807676
5.6895609 5.8056059 6.8264222
5.9913821 5.87709 7.2571325
5.6410484 5.6294022 7.817606
5.6208258 5.8867645 9.4241867
5.5120058 5.9869046 9.7533379
5.7691679 6.4205656 0.6945926
5.565485 6.1877108 2.6538422
5.6604719 6.0645576 3.5597465
5.7513332 6.4246817 5.0385571
5.633976 6.0653887 5.9794436
5.575232 6.0834999 6.0146813
5.680337 6.3073406 7.3003383
5.5941048 6.3191485 7.9400868
5.6755061 6.4017129 8.3254004
5.9074678 6.3286328 8.6194954
5.8179579 6.4835844 9.4543724
5.7941904 6.006752 9.7884521
5.8622398 6.8999143 0.49356329
5.7578564 6.7191362 1.1426477
5.968606 6.8298535 1.6280408
5.5828753 6.6126466 2.4738379
5.7538533 6.5261602 2.9672668
5.6181583 6.5910554 3.542969
5.8332467 6.9712281 4.3308053
5.7768955 6.7676826 4.86517
5.9323559 6.7916956 5.5816841
5.7159162 6.5726638 6.3358727
5.7424078 6.7119222 6.5815926
5.8913207 6.9667101 7.3159289
5.5561213 6.5552573 8.1652632
5.7616873 6.7287087 8.5364418
5.8791261 6.5726566 9.1852398
5.8276386 6.5754919 9.9961443
5.9197116 7.2441964 0.69173622
5.8794727 7.1228132 1.3200219
5.5448723 7.0051961 2.0299406
5.9592485 7.2873898 2.5771341
5.5303335 7.3786135 3.153511
5.9357095 7.078249 4.1037827
5.9130936 7.125258 4.742651
5.9068127 7.0085039 5.2744918
5.6547632 7.1027274 7.2769642
5.9035163 7.1116123 7.7208824
5.6707292 7.1551008 8.300725
5.8509226 7.1340203 9.906786
5.9193377 7.6396685 0.12240326
5.9344192 7.9251485 1.1395394
5.7400231 7.7021914 2.82197
5.5245996 7.7664495 3.3478599
5.5144267 7.9511738 3.8379025
5.5363779 7.6010532 4.3297467
5.5148201 7.6021519 4.9023924
5.5421572 7.8851042 5.4552455
5.7351789 7.5603399 6.8450551
5.7949882 7.8012772 7.0218587
5.6146531 7.6642742 7.9158306
5.8066111 7.8756485 8.2983408
5.5170484 7.5615525 8.5801105
5.833231 7.7588673 9.2458944
5.5836697 7.5229912 9.7928343
5.8724508 8.2412653 0.24931383
5.7009716 8.3295622 0.84239519
5.9419055 8.1919174 1.3909012
5.6833792 8.209733 1.6381702
5.7728605 8.1089878 2.8409796
5.92451 8.4224043 3.3977389
5.9944324 8.016181 3.9246182
5.7086606 8.2414665 4.8393874
5.9061866 8.0632896 5.1000557
5.9653454 8.33391 5.8307319
5.7054801 8.2215128 6.0522614
5.7062106 8.4516487 6.5625467
5.64291 8.4765787 7.4887266
5.9684634 8.2067976 7.6370544
5.5615311 8.0448227 8.3247395
5.8424635 8.4719524 8.7658033
5.8065434 8.8516512 1.1304172
5.9899092 8.9055882 1.6497518
5.6410398 8.7802982 2.9331923
5.5400009 8.8282118 3.0413041
5.8332992 8.7903318 4.5851684
5.6091065 8.8141747 5.1583009
5.5916185 8.6688747 5.7340331
5.8148136 8.5973749 6.8362017
5.5431213 8.712801 7.2396207
5.6199603 8.9655085 7.73174
5.6449032 8.5236759 8.2024012
5.669054 8.9434338 8.6303873
5.7318783 8.989007 9.3278017
5.546957 8.6441174 9.9111433
5.6352015 9.2393103 0.072554439
5.8338461 9.3760853 1.3400662
5.7776871 9.4245892 1.7254021
5.5347261 9.4899673 3.099381
5.895175 9.3274918 3.6108227
5.9218068 9.2648487 4.4526854
5.6269369 9.3609324 4.6697102
5.6534185 9.0631828 5.4710336
5.8713999 9.2488022 5.5260344
5.866663 9.2404833 6.221076
5.5194206 9.075882 7.3235092
5.5236573 9.3735476 8.7577229
5.9162335 9.6976166 0.44252092
5.8905454 9.9103765 1.1662743
5.9103413 9.6687775 1.8155051
5.6588936 9.7383461 2.8995597
5.9507222 9.7499609 3.0022435
5.7134151 9.8064108 3.9874091
5.7877941 9.6843328 5.5453329
5.6046705 9.7443829 6.1226611
5.7177615 9.8309155 6.7063723
5.8262558 9.8267593 7.2569346
5.6095557 9.9687481 7.6921663
5.868907 9.689394 8.8464918
5.9928885 9.7843208 9.4276438
6.3239765 0.20219712 0.026313629
6.0536585 0.069821768 0.5944736
6.4945269 0.17118268 1.1458929
6.2988186 0.10698983 2.3182678
6.3985682 0.38267666 3.4324694
6.3852911 0.49097374 3.6597567
6.4556222 0.33182794 4.038866
6.2536421 0.45517471 4.7831602
6.3751745 0.45746329 5.5927
6.3284488 0.017360929 7.9692554
6.2985663 0.20709158 8.4812698
6.0203972 0.45607567 9.1971149
6.3407593 0.36286885 9.5680676
6.2723598 0.92381144 0.27700678
6.2531261 0.96114433 0.75926751
6.2008276 0.60947609 1.0915853
6.2489648 0.68242127 2.4358971
6.1900182 0.59031475 2.965013
6.1236644 0.98608434 3.3014855
6.2168283 0.89166695 3.9031696
6.362143 0.81721616 4.9587984
6.1804338 0.53272861 5.4035897
6.1540947 0.69983733 6.3962679
6.2225051 0.82768369 6.5140967
6.2027245 0.73000902 7.4835081
6.3525815 0.72331691 7.7643223
6.2132463 0.97239208 8.4297981
6.2145109 0.9529475 9.8391457
6.1105828 1.4564539 0.55390424
6.1394095 1.1393164 1.359738
6.3958378 1.0749506 2.2539542
6.3036528 1.2848841 2.6992464
6.3728666 1.0435106 4.3736749
6.2568903 1.2961116 5.4697733
6.2055535 1.0027637 5.9503927
6.2760425 1.0790612 6.8112512
6.3064032 1.0379113 8.3114662
6.4927125 1.1239419 8.5794868
6.322226 1.1153333 9.065341
6.3334999 1.4974136 9.6571674
6.2911949 1.7178375 0.35106874
6.1647139 1.8392165 0.51542211
6.1631136 1.6028875 1.4873991
6.3230281 1.641943 2.2876244
6.423676 1.767431 2.8938046
6.370204 1.7410566 3.478297
6.3291082 1.9155573 4.8299184
6.290987 1.5910417 5.2432108
6.0297546 1.6132481 5.7944069
6.4676704 1.7521507 6.1984372
6.3562765 1.6900613 6.6405544
6.0103993 1.5170867 7.2288837
6.4923615 1.9882249 7.6543379
6.0518928 1.5843995 8.1013775
6.4735417 1.921165 8.7880754
6.3634405 1.8015105 9.3966799
6.4673953 1.5876651 9.7023087
6.0834446 2.3656869 0.57811189
6.3554664 2.4539776 1.225345
6.227952 2.1692803 2.3596776
6.4302168 2.2776308 3.9497921
6.3096123 2.0651698 4.3963056
6.3288307 2.1798108 5.1577024
6.2302103 2.1926804 5.7478571
6.0549202 2.1449788 6.4988871
6.0881162 2.4407644 7.2134824
6.4167638 2.1374912 7.7007399
6.4354663 2.4812932 8.9770489
6.1661673 2.427536 9.4865417
6.2683296 2.7861168 0.41046903
6.2718172 2.9105256 1.0619311
6.1271281 2.6469707 1.5418087
6.4258933 2.6454089 2.0225909
6.2924953 2.5128951 2.64729
6.4575148 2.8518293 3.3863211
6.2094936 2.5232327 3.5904348
6.4670744 2.6293755 4.4414177
6.003602 2.7786407 4.9009304
6.1367998 2.9753203 5.4608464
6.2624283 2.579227 6.5193558
6.0352659 2.524785 7.3443122
6.3501053 2.9605131 7.8967237
6.2164092 2.6914263 8.0568209
6.2806768 2.9212749 9.5738144
6.2741785 3.1509874 0.054831654
6.4866962 3.0876522 0.82894927
6.1510272 3.0401132 1.0102036
6.3759112 3.0681989 1.7116286
6.1999521 3.146095 2.6085174
6.1006231 3.3898759 3.6401362
6.4635677 3.3605657 4.5406885
6.3422737 3.4379721 5.3562193
6.3618798 3.2672424 5.7575803
6.1162691 3.330606 6.4791365
6.3987074 3.2346187 6.7907386
6.4945936 3.2603931 7.0482678
6.0603189 3.2546055 7.7475338
6.0097055 3.3850992 8.3688402
6.3476419 3.3268032 8.7245359
6.447053 3.2192376 9.2876062
6.467886 3.8556786 1.1995531
6.3541389 3.5280786 2.0884931
6.4602299 3.704421 2.5156212
6.4614491 3.6454668 3.3655121
6.4977336 3.6081078 3.7138247
6.2086349 3.8673205 4.2703128
6.4967542 3.5816498 4.986104
6.1633043 3.523617 5.9824247
6.2773032 3.539062 7.3629084
6.1822181 3.6223018 7.6844831
6.4710383 3.8214824 9.4225273
6.3140306 3.9964259 9.5327473
6.4590645 4.101676 0.37942442
6.4962287 4.2836065 0.68802863
6.014554 4.1996851 1.1300204
6.0416107 4.2041559 4.3401484
6.2559948 4.1961002 4.9301047
6.483037 4.1841273 5.1438503
6.046361 4.4824061 6.0553737
6.1262298 4.0788503 6.6440172
6.1092196 4.1950946 8.4923
6.2600927 4.1443248 9.6451588
6.2905116 4.6044893 0.38890883
6.1120358 4.8400841 1.006174
6.3584185 4.5137458 1.5729406
6.2511606 4.9564509 3.1653347
6.195302 4.6267347 3.7433493
6.3457413 4.9448557 5.9919734
6.1672211 4.6492147 6.0788589
6.296092 4.9030581 6.7535896
6.2167983 4.8439384 7.3272114
6.2925315 4.9468575 8.140789
6.0977864 4.6307778 8.6740313
6.2187729 4.5874696 9.4873829
6.2565966 5.0982122 0.86313891
6.0710979 5.4765472 1.1210353
6.368053 5.2717595 1.8950799
6.1278672 5.2604656 2.1007462
6.2683649 5.1540036 2.7941866
6.4457884 5.2562165 3.5556271
6.4939861 5.0194507 4.3645935
6.1388397 5.1272006 5.1084304
6.0500054 5.2535434 6.3154836
6.2572851 5.1972895 6.7247181
6.0074844 5.1820569 7.2932286
6.3210015 5.1972847 9.1766911
6.3821316 5.5950952 0.6377573
6.427618 5.9391518 1.2715838
6.034008 5.9953475 1.5154618
6.414165 5.8516021 2.5408463
6.1690741 5.8001022 3.0791907
6.2671919 5.6481271 3.5455489
6.4923124 5.9204335 4.374084
6.3659434 5.710083 4.5511565
6.0360055 5.7761903 5.153676
6.086822 5.7374105 5.7088561
6.0963354 5.901895 6.2190843
6.0170174 5.539505 7.7589388
6.3159819 5.7731075 8.4272327
6.235363 5.8365459 8.7481394
6.4870939 5.7374535 9.1203833
6.215992 5.5308981 9.8271856
6.0881729 6.1633396 0.43676209
6.2068119 6.0883217 1.4416009
6.0624018 6.2826242 1.6185684
6.0349684 6.3897514 2.1840742
6.0529017 6.3114796 3.2540073
6.0884714 6.1025467 4.4518051
6.454082 6.0846753 5.2460742
6.3040247 6.2265944 6.6642265
6.3692117 6.0043387 7.4782467
6.4097576 6.0507736 7.8121405
6.1786442 6.4048662 8.0649891
6.3926225 6.4879761 9.7450485
6.1670709 6.5077505 0.1459557
6.4089561 6.9820542 1.0862845
6.2432661 6.5129704 1.640605
6.3873863 6.805923 2.0965121
6.4734058 6.5084009 2.9042163
6.0948029 6.6124525 3.039072
6.263648 6.9854598 3.9779737
6.4200563 6.8907051 4.505641
6.1545401 6.7248163 5.6128354
6.1113338 6.7548389 6.3566751
6.4858303 6.5990968 7.4692292
6.0917282 6.8625565 8.3999357
6.1410623 6.7684774 8.9990616
6.3234286 6.9209862 9.2943134
6.3565941 6.5531197 9.8970175
6.4693351 7.1409941 0.38287991
6.3730812 7.3856597 0.54682231
6.4018087 7.0417833 1.2069592
6.2730746 7.0219431 1.8732173
6.0928798 7.4373918 2.1005781
6.4545021 7.1572914 4.1769304
6.2339945 7.0515051 4.7282081
6.2677212 7.2487311 5.3419027
6.2476249 7.0245972 5.5059624
6.2071462 7.2828846 6.8832254
6.3417621 7.4220319 7.9977345
6.2533469 7.4116621 8.6071243
6.2046571 7.199008 9.2641811
6.2118464 7.3846531 9.594573
6.0198469 7.7828083 0.27925733
6.2037458 7.799664 0.63908815
6.1230803 7.5624428 1.2242173
6.0050206 7.5575485 1.9224073
6.2797108 7.7388563 2.2526107
6.4811225 7.6077609 2.9161873
6.1474895 7.6069446 3.0848465
6.4123249 7.8387671 3.6855974
6.416573 7.8933902 4.2172384
6.2266135 7.7512221 4.9895496
6.2228193 7.543612 5.3445058
6.1447425 7.9216723 6.0938816
6.452148 7.7703528 6.5625024
6.4357872 7.9507523 7.9674821
6.1486893 7.7152386 8.3749809
6.1083932 7.732482 8.8670883
6.0965452 7.7919288 9.4034567
6.2251611 8.2362595 0.36669594
6.095911 8.3188477 0.72631216
6.0979486 8.4187546 1.3682876
6.2899404 8.1772432 1.8786159
6.4594083 8.4845943 2.2271662
6.335804 8.3603048 2.5674698
6.2303705 8.1636562 3.2539246
6.262372 8.2115002 3.7005877
6.2440295 8.2276039 4.4436703
6.1701727 8.2662125 4.8084331
6.3838568 8.1306295 5.3030438
6.4526653 8.1525097 5.7528267
6.2986608 8.1586514 6.2745209
6.3627934 8.0309963 7.3770118
6.1168313 8.4866972 7.6102514
6.460216 8.2409 8.8230629
6.3751545 8.3693161 9.340538
6.3973026 8.5354061 0.0819868
6.4134989 8.9172258 0.94953215
6.188508 8.8276424 1.4872375
6.4333048 8.8287773 1.5956872
6.0626593 8.9457283 2.4636712
6.0640578 8.6138458 3.6667256
6.3919215 8.5992374 4.0454464
6.1229472 8.9538813 6.1862288
6.2942162 8.7050438 6.6182604
6.274704 8.5078125 7.7398009
6.4734797 8.7181911 8.6119375
6.0066404 8.8080587 9.2806253
6.4510298 8.643404 9.6855984
6.4632087 9.0814219 0.031292483
