# .PCD v0.7 - Point Cloud Data file format
VERSION 0.7
FIELDS x y z
SIZE 4 4 4
TYPE F F F
COUNT 1 1 1
WIDTH 1593
HEIGHT 1
VIEWPOINT 0 0 0 1 0 0 0
POINTS 1593
DATA ascii
2.3850141 6.261435 5.2378559
5.8180356 0.56661087 7.1370592
9.2328444 6.9615602 5.9875669
0.59441626 3.3915629 4.6455479
0.97917259 8.8704033 7.9244132
5.1049881 2.6263275 8.6062565
4.1361589 6.4780121 6.4952774
5.2817588 8.0774298 0.18600219
0.33603215 8.3304806 5.3546238
5.133872 8.4508705 5.6345801
3.2459106 0.83588469 1.8960152
8.4837666 6.6539202 2.462626
5.6208258 5.8867645 9.4241867
1.6083922 6.4811807 2.8157492
6.2539396 7.4603534 1.686152
4.1783533 2.5653419 4.3124795
2.78461 6.7015004 0.79049164
9.2798872 1.9832597 8.8679218
9.465889 2.3192916 7.1984015
4.8205132 7.4531641 5.649272
0.45509338 0.69907439 6.485157
2.3511086 9.1828413 3.1390772
4.8137345 4.8036671 9.0258417
4.2379208 6.4120598 5.5070219
7.0536699 2.6659994 2.9673755
8.7398224 6.8443527 5.5327172
3.0523014 9.6289625 2.2342179
3.842793 8.9088497 4.2174773
2.7107146 8.3747396 6.5367694
9.9091167 3.1952527 3.9899328
5.5583887 3.650346 4.6890073
2.0435457 6.0014544 3.8718486
5.1826229 0.81518918 8.6755161
4.2084641 5.0531101 5.0875754
9.7154865 2.1067796 7.7535748
2.682862 0.84660137 4.5979271
8.215579 3.8989029 4.2268901
0.44979694 7.7416954 3.1357405
4.6672745 0.45241028 1.5104799
1.2040435 0.36152667 4.7057328
5.1939764 5.9199152 8.3560791
9.8829842 7.9634614 4.3575339
3.7548325 3.1460843 5.1727228
2.4303484 7.3545485 0.2258327
7.5179238 7.0700355 2.3326123
5.2714987 9.7528973 3.1792138
9.8694258 7.9684763 7.0781164
4.0963163 8.418273 4.8198123
7.2320561 3.0855477 5.2722225
8.7425365 4.2895913 5.6337495
3.4482691 9.4835672 1.5536647
1.8043481 9.3665514 9.5171261
6.1618814 3.1213841 2.6632099
1.3346045 5.5517321 0.017758835
1.5604372 3.0696559 7.0877938
3.8930497 8.3411541 6.8406916
7.0722632 8.2105799 4.8091679
4.1503801 2.306896 3.2274411
8.970192 9.5389519 6.3129892
4.2424145 8.2814884 0.60257995
9.8761635 1.7297578 0.086147606
1.4298284 3.5341058 9.4526997
0.94695437 9.6959877 2.5740833
3.6101646 1.030592 8.1258154
3.6279235 2.5910294 1.1954716
0.71571743 6.4840789 9.5366259
7.5564089 3.5563421 7.7472062
2.3655765 7.7067223 0.054101866
5.5930176 6.6769142 9.5930538
1.9060063 0.91932833 7.8745432
2.5085864 0.79549199 9.6043005
2.5947337 2.2253203 3.1384065
2.0474329 3.1722748 2.834394
4.6215162 6.7824392 3.8649864
2.7473319 0.41036272 6.4560156
3.9428034 1.1260802 2.9400942
3.4794295 8.6824884 6.4964366
1.2266355 1.0480654 4.2031584
1.2807372 6.6410828 0.88007212
0.87379152 8.5470886 1.7994004
8.7483349 1.0556756 2.5948925
8.3526344 3.6504097 4.8202128
1.4910418 5.6978421 7.9924874
4.3254356 0.31935871 4.7749271
8.1904221 3.0666904 5.1852894
4.6464376 7.0094943 6.3113694
7.5865316 0.48892373 4.9938588
4.0829682 1.715559 6.0419245
8.2861261 2.9962964 2.6830072
9.1661987 3.8700879 1.2300966
0.96559888 2.6184223 2.2857721
3.5604911 0.97105747 5.9361815
8.3807039 2.4620991 1.6340241
6.3731914 6.7875347 1.9533826
1.1481185 4.9779568 5.0200729
6.3334084 9.6243944 2.0295675
2.6447778 7.2109265 2.5184913
7.6386361 1.2938945 4.2340503
3.6805606 9.5800209 7.2303467
6.3635678 8.7462196 1.1004345
7.5936646 9.7118177 3.7188568
9.8794365 3.2723095 4.6899142
5.815618 1.6530137 7.1520138
7.4496417 8.0262051 3.9395487
9.4030247 9.174324 8.9175053
4.4230981 5.5077319 8.5419006
6.4526653 8.1525097 5.7528267
8.9711561 5.7911463 7.0467215
3.2052069 9.4717064 6.6267424
0.43555373 5.8352747 5.372962
1.5359883 3.4289389 5.0847807
5.2548451 3.3083754 8.35709
9.9447594 9.1239939 0.010103565
7.0967727 6.5736351 8.0363092
1.0363216 5.9766603 7.2106323
9.9538269 0.39975819 2.7183647
8.4957275 6.8524237 0.87087423
4.2485552 5.8235807 6.6620207
1.2952764 9.0287876 6.1337276
7.922019 9.4643412 1.969002
3.2949808 1.0003295 5.3979406
8.3797607 6.2551742 8.706316
6.7368507 6.199934 7.8303099
6.7469544 3.2967069 4.4039454
4.7832632 4.3330288 0.3806057
1.993896 4.2868562 0.7803638
4.7122607 2.7825842 7.6327877
5.5831347 7.0311394 3.4563682
2.2451553 8.3264151 2.4851556
8.3788824 6.2484341 1.9494967
0.34788465 9.5434151 2.9498262
5.7458258 7.9231763 9.2050009
4.4521422 4.660027 5.4049349
2.2824523 1.4069817 8.7016411
6.6863976 6.1902452 3.0346704
7.0670037 8.1841412 7.3215265
7.8473673 2.8964016 0.10411093
5.4801555 8.4795361 7.1352501
8.9365234 0.72469169 5.4616652
1.4216787 9.1035738 1.7101001
3.3711753 9.4514589 1.2535152
6.3210015 5.1972847 9.1766911
5.5260019 9.6494274 3.8367186
0.93093717 1.9318796 5.2437
9.6325788 8.6182775 1.4339452
2.6672494 5.6852813 9.6180859
9.9887762 3.532649 2.5144875
0.092886984 9.012804 0.99402398
7.228137 7.9493275 1.7187155
2.6898026 9.371006 0.82228988
4.3999028 2.7421811 0.27374887
5.6534185 9.0631828 5.4710336
4.8301096 4.5891852 5.120461
8.6668282 5.5201221 7.0523405
3.9105284 5.1527014 5.6706185
5.3444729 7.8199506 1.3558997
4.9625592 7.8087263 4.8885484
7.477047 7.9016137 3.9013526
8.4710712 5.1297503 1.8506799
0.18978654 7.8195534 1.2216856
1.0120764 2.2194562 3.9638667
1.2858253 7.8728743 3.0270493
6.7568588 2.7029839 7.6162343
1.8773198 1.369812 3.1363564
8.9296608 5.2803402 8.2890577
4.6002789 0.62481362 6.1090083
5.9561782 5.5873728 3.9177346
0.84472692 3.06442 1.8193481
4.7460799 1.5354909 6.9490986
6.5967598 1.7252774 4.768652
7.8184452 2.737354 6.9881082
1.7823119 4.0231791 4.8609824
4.8093615 0.78003818 7.5639668
2.425596 2.6573582 8.9337788
5.5619526 1.5870183 4.214119
3.8510103 6.1872969 4.838932
9.9600182 2.1434753 0.42630523
3.877753 2.9882023 3.490725
5.6971006 7.734282 5.0262165
2.6461995 4.3310413 6.7514939
7.4148517 2.1494868 9.4888477
4.4029598 3.9317987 3.512027
9.2639427 8.7411604 4.2920647
6.8279085 1.166756 6.9494228
5.7616873 6.7287087 8.5364418
9.9758053 0.57971871 4.7237382
4.8147378 0.53973699 6.8672132
5.2410431 4.41749 9.8554153
8.7317677 0.11459088 7.5896974
3.7579844 2.7607906 1.9207387
0.50947821 0.1756421 4.0702252
9.9983253 4.5786018 8.0020237
3.5103526 3.8425443 6.7431836
7.8024178 0.67045271 7.9099398
4.7518406 6.4321399 4.6386485
3.2882819 6.4079452 5.2183671
8.0120201 1.2226828 5.7581043
4.8792334 6.4637256 0.17559412
4.7346487 5.1954937 0.29018503
2.3243458 8.9534779 3.0509756
4.2450848 9.4629564 3.2266176
8.3153095 9.4612827 7.8052192
6.3173337 2.9716351 1.6477637
3.0605175 0.77405286 2.3182163
0.97045773 5.5258937 8.7503557
5.6091065 8.8141747 5.1583009
0.8274734 6.8261952 6.3809843
6.585578 1.7054282 2.8447099
6.7611718 6.4400768 8.0402031
7.0513573 8.7644224 6.9936819
0.10233225 3.0095072 6.4566383
3.3289499 1.3248169 5.9179211
1.1341693 7.6421504 8.8895569
2.7819328 0.70266849 9.6636095
5.1001496 1.6731262 5.1895027
3.8505056 7.2822328 4.0036778
9.0088072 8.109705 0.82987314
5.3897905 4.6952829 2.5353014
8.2344999 1.456455 8.975378
6.274704 8.5078125 7.7398009
3.2683861 8.6101446 0.74930787
9.7250252 1.9390939 2.0741248
5.6429458 3.0732632 9.7162752
4.5325022 5.855196 0.41894403
4.1961117 0.95534587 2.0920703
9.3856144 4.8058515 9.3743029
3.3892922 3.8146579 7.4840078
4.2191653 9.2044487 2.1792917
6.754467 7.4389486 3.6357465
5.729845 3.7136531 2.1435585
3.4696457 6.9820395 0.75370246
4.2189536 6.7070637 2.6927962
6.2930784 2.3500099 5.7660599
6.0093541 6.8825121 1.621256
6.428298 1.0786237 2.5766017
8.5203686 0.46423796 7.382453
7.894671 3.8535304 1.1971114
5.3786793 8.0726957 0.40156004
7.557971 4.8271627 7.8405089
1.1937175 0.55700743 1.554162
3.337276 4.0266533 8.5362015
4.0909781 8.2456074 5.2432652
6.7837744 4.5386848 7.5932746
2.5498343 0.5480392 4.4757867
4.1710906 6.9763374 5.55441
6.7476921 5.4967051 6.0186481
4.1301451 3.3913765 9.8721781
5.3272572 8.7700548 7.9448743
5.728817 6.3280258 2.7720368
3.5693259 7.5217438 3.3290443
5.1234875 0.85901952 7.3556976
3.6596892 4.9499979 5.6013041
8.9029541 1.7337725 0.13998947
6.4962287 4.2836065 0.68802863
0.9720155 8.4546967 7.6643658
6.5264263 5.2023892 3.1610713
2.5450742 9.3325348 6.5524478
2.417253 4.6597915 5.3225031
0.36212736 0.38860816 1.6505294
3.1341643 3.9579341 9.1722727
6.4632087 9.0814219 0.031292483
3.8189063 2.7411108 4.9812903
9.4202108 1.6440649 6.7150631
9.5601997 8.1402941 0.99866951
0.24822855 9.1123095 9.4533663
7.9125948 5.6387353 4.655756
1.0736657 8.1838093 3.9882903
7.6261134 0.60106242 8.6480818
2.9486165 0.96318972 9.0366898
4.5991459 4.0973539 2.9946241
3.7714186 0.56056267 2.076046
3.802711 4.3794689 4.8171568
8.7840014 3.7996793 6.4612222
5.4990644 3.3598793 4.6015158
6.4977336 3.6081078 3.7138247
5.9511003 1.5207021 9.35256
0.60685611 2.594368 7.5363688
4.5951467 0.22048123 8.1374321
3.2432284 3.1690977 9.1006212
2.2799184 7.7682438 3.1979754
5.2745428 1.5396621 3.758538
7.3505883 5.3423734 8.1380072
2.1677454 4.1263747 1.9376862
8.6289673 9.6254387 5.2975655
3.2304826 6.1231732 8.905673
6.9443078 2.0742731 0.42637527
6.2968674 2.6811295 3.0207431
3.8332365 7.2762756 3.2412243
1.9706681 0.51950443 6.4103222
1.0712897 2.7994227 4.1785655
4.2692652 8.0739651 5.7182274
8.0278034 5.4245539 1.060601
6.1658101 7.592299 5.1869755
8.1034966 6.2212663 4.8124151
3.4010615 9.4517488 0.93558788
2.306735 6.3960562 3.009861
2.7331102 2.6929235 5.6909904
5.7538533 6.5261602 2.9672668
8.9950771 8.4968281 3.4867711
5.4053998 9.5681181 6.2861938
9.5839653 3.837383 4.3601589
5.3021927 1.8651861 9.7847128
6.3627934 8.0309963 7.3770118
1.5497695 6.1344929 3.5982778
6.3621845 9.5355549 3.0500267
7.2977724 1.8422892 9.4460831
0.30763358 4.5753994 2.1390066
5.9986238 0.32925266 8.6651669
8.9658909 9.3243303 7.1619949
2.4526618 4.7297297 6.730113
8.7388554 4.313695 0.56749606
3.0990148 9.6158876 2.4326823
2.8837273 5.9786816 0.46367851
0.260739 7.528451 6.5981712
3.8590169 3.8906357 6.1337256
6.9090433 1.1884079 7.9760146
6.3551264 1.4960415 2.551414
8.494133 7.4946661 2.8806667
7.1592999 6.4605565 2.2049971
4.3212953 8.9132185 6.9347267
1.0514083 7.6520739 1.2484221
1.6189044 0.7510888 0.86430997
4.0515862 3.6348162 6.8429918
4.515265 3.895555 4.3714423
1.1134361 7.7545719 8.2620783
7.2471619 4.6636157 9.4504862
5.2231765 1.018742 0.9465276
7.7745905 9.5128746 8.4411926
0.65525723 6.6721749 4.9017496
2.8602543 0.99347043 3.8149681
9.794981 2.0448785 1.4670422
1.0434035 3.6637831 2.2181311
1.9077135 7.7153692 5.8529472
8.7507048 2.2306345 9.7485027
3.1221476 3.3440707 7.5030746
1.384226 0.59123236 2.1666899
0.83471191 5.8144088 3.185432
1.7812395 3.5889993 2.698307
0.22243288 4.2442565 9.3704815
5.1241827 7.1045108 0.36395258
8.9391508 6.8994923 2.4088314
0.40619332 7.9428959 6.0726142
2.6243246 9.8506088 3.7879837
8.477272 8.6013145 6.0186186
8.2257738 1.7234621 9.362689
5.7288485 3.107688 9.9539213
7.8955383 3.9424 5.7683301
1.0809702 5.7236395 9.3573294
3.7792773 5.9460726 3.6015859
3.1497593 1.0702552 0.70609677
3.5137119 0.0094061112 7.6055889
5.9225435 0.41559947 5.5484848
1.9951575 3.0399239 5.3990941
5.7831411 1.5171956 4.0004082
1.8017595 9.7429695 5.7238703
1.1644485 5.4718184 8.8315582
1.1183699 3.3673563 2.7739584
6.8866997 4.4483266 8.4975986
6.2440295 8.2276039 4.4436703
9.8456154 1.3773631 5.5139256
0.55171198 4.8910751 5.5233316
8.1573009 0.81361818 5.938931
3.7057858 2.8087757 8.9788551
9.1048803 8.591917 0.49605042
3.105288 0.39367631 0.23902008
8.8291588 1.5581249 5.7108383
7.6607175 2.6764946 9.0781946
0.43467563 9.5631943 3.5265212
8.9322739 5.8072238 1.7541252
3.3759439 5.6528397 3.1314883
8.8898697 6.2045517 8.0225639
4.4132004 4.3618526 8.8361816
0.35213158 8.0676384 1.6449571
9.330986 7.1725178 0.23687381
9.8270369 0.27780622 0.63055015
0.06605687 9.1069651 2.1886749
5.7768955 6.7676826 4.86517
4.8550897 7.2023578 4.4283648
8.3816109 6.1346316 0.23558877
0.13573639 9.5105753 5.8884282
3.2672248 8.400444 2.0929797
1.2897879 2.8136449 6.4548321
0.12596922 3.1657765 4.5224705
1.7709262 2.4967628 1.6949883
2.0078001 2.3237996 1.9727947
2.63835 2.3898566 1.0797596
4.8270254 8.1667519 7.8474422
9.6921949 3.0218415 5.0497999
4.1205597 1.4034529 1.1844311
4.3561482 1.5391892 0.69500619
0.24457656 4.8064141 9.0954504
2.3375561 6.0962014 1.9090955
8.7923889 6.2221708 5.074872
3.3148587 7.9930973 7.5716348
5.0098472 0.00089711044 9.8954344
6.9826417 2.6392472 2.2852912
8.0624018 7.4662728 0.45204294
5.909843 7.1584673 3.4738846
0.95964277 1.279027 4.8773375
2.1440737 5.6351752 6.4165263
2.8390799 5.8797522 1.2229404
1.9345305 8.217308 7.3191423
3.8436258 7.0096965 3.5413127
8.9184971 0.32455522 1.53441
6.4901328 5.3344021 1.5353072
6.3855672 2.3170443 4.1745543
8.6708584 0.37944549 1.6408269
9.1229019 6.2892885 8.7992945
2.596786 7.2489314 0.078321248
7.474123 9.3930054 5.7134967
3.89065 2.232085 1.5932484
5.1135902 4.1666155 9.8105564
2.4327323 8.0102415 6.8202534
5.9740453 6.9287391 7.1448083
7.5084553 3.4188714 2.4792104
9.0437622 9.8044386 4.7962546
3.218317 8.475297 5.1757002
4.8591437 7.5981989 1.4649887
3.658438 0.1949847 8.7139206
3.7367594 7.6691079 8.106926
9.4502554 1.5597579 0.33901024
1.0435042 6.6733479 4.5056257
0.85406065 9.106081 2.5158668
7.6743135 5.0801258 9.4446058
4.8191218 2.5885811 2.8634772
7.2983322 1.6323438 2.6679161
2.0945868 4.8506603 1.1432134
7.2702875 9.7098045 8.7414122
8.7352762 3.3682423 8.9363966
7.4491959 7.1050019 6.605505
5.5561213 6.5552573 8.1652632
5.8951311 7.598762 4.8386111
0.40075704 8.4528227 3.9446917
2.9166241 6.1271362 9.0248175
2.3612294 0.94625783 1.6133988
5.2247066 8.2445898 3.2457426
7.8926229 0.33917698 8.0964031
9.0358362 7.6094637 7.8062077
7.7772484 6.3447399 1.1744503
6.7136455 3.7939358 8.2794523
3.3191504 9.3500576 4.8347096
1.4844131 5.2451887 2.4334717
6.3230238 5.6459455 0.88629431
0.26771593 8.5625687 7.0134306
9.2925339 0.92379874 7.9596882
0.90593231 6.1485057 6.2042785
4.1516752 4.0411286 6.5434551
2.2480783 3.0769646 4.1529193
0.054286014 0.8542133 0.49765927
1.2287363 7.5678587 4.291595
9.5081882 0.88700914 3.6416521
4.3428984 2.3714223 8.8868408
6.77637 8.6944466 4.5327859
7.6626639 8.962163 3.095355
4.6760945 8.2546959 4.0191541
2.635783 9.1606283 0.1676594
8.8400612 3.3123035 4.2087879
5.3835163 5.5603814 7.2857523
9.5364361 5.6146674 8.139966
0.034095317 6.8434043 5.7078247
4.3256903 6.3515925 6.5948339
7.9673424 0.69449061 8.9662561
6.8541832 7.4708605 7.6607027
1.3869686 5.1335244 6.6228652
4.4823236 9.8096189 4.8775611
8.5014782 2.4454024 4.0381899
8.669137 1.2854637 7.350493
2.8779249 6.6689801 2.9108748
0.16367754 6.2054162 8.5255423
8.3036432 6.239512 5.3689461
4.0114679 0.56520218 1.7205387
0.60630172 8.5325441 2.4150295
9.5725574 5.3867273 9.88589
7.2332602 6.7736959 5.0194149
3.8561254 1.2560198 4.8290343
8.7336864 9.7574978 7.274437
2.7718761 8.4266348 8.5599003
0.12236921 1.3045596 5.2288809
3.0332441 1.468237 1.4342973
1.5587864 9.7718801 7.6738091
6.9277329 3.7833486 8.2390108
8.6482716 4.3896503 6.7715554
1.0633008 3.962208 2.1582832
0.9491908 1.1954683 8.9319792
5.968605 5.0515938 0.18799901
0.79763979 3.7852802 9.9454966
8.0720768 6.5571566 8.3721313
6.6319771 6.6795259 9.6766911
1.8608576 9.7127695 1.1449277
3.2951548 1.271556 0.91680825
0.96896398 8.1992893 4.7001567
9.2079754 6.8475599 9.0898066
5.9795308 7.910861 3.0520151
8.1378145 8.8600521 4.2474833
7.0697932 4.8286572 9.299077
7.2577925 5.626297 3.0843573
7.2032886 3.6983733 9.6415138
5.5754194 0.33035013 6.3210397
5.2521105 2.1912076 6.0338092
6.397038 5.4863625 7.3053651
7.3138466 6.4553266 5.5046539
2.0140033 5.6633019 2.3522139
1.1038103 1.6428329 0.26307482
4.1558251 9.7806473 9.123126
8.4033089 6.8504405 3.9517834
7.7023849 4.1082325 9.5780811
0.78674263 1.3115215 3.276454
0.42825645 6.886941 3.6068039
6.7492962 2.1390519 5.7980118
2.7831054 8.5360899 1.2843745
0.088470638 5.8499374 7.7397013
5.5931244 7.8639402 3.403003
7.9453382 8.9677505 5.045836
8.2084131 3.1235757 4.8264828
7.3315392 1.5268841 1.676923
1.2833233 9.22927 5.7851558
0.86140382 0.016012065 7.0966768
4.1378574 0.44426855 3.9836187
7.7446613 7.1935649 6.1226707
3.5426733 9.9766703 4.658761
4.8270478 0.065140679 0.50869787
2.5667489 5.6582651 8.3726387
5.9697523 3.6036036 7.3403883
1.0155876 1.8120168 0.46396428
5.8420701 9.1435566 1.9908483
7.5189929 0.42687976 1.2201178
3.3041489 1.2882836 1.2361299
0.40082604 5.4261408 1.6803985
4.3844447 3.1708028 8.8739634
0.50711507 6.7134762 8.8506327
5.1658764 1.5405242 8.9157734
5.6745739 4.1072731 4.574039
4.0472121 0.077024937 8.1776428
1.3876007 1.0926125 9.9896593
1.8515648 6.9346828 9.1332159
3.8424132 4.4536762 9.5600958
5.0625315 7.7578249 0.84837919
6.2986608 8.1586514 6.2745209
7.9790592 2.5430956 9.445323
6.8530226 3.0502105 6.1587996
5.7036552 8.2160864 7.6993237
4.6194296 3.8906603 1.8065971
9.1934681 7.9378724 1.8836222
7.3711109 9.3254728 2.9762344
7.3607702 1.1770378 9.9109173
6.4939861 5.0194507 4.3645935
6.0540819 0.081981957 2.1224184
6.9024611 6.3806429 0.28106928
3.1769814 4.3597021 2.8241649
2.6223049 1.2127246 5.8743753
8.781105 6.9163799 4.0904622
6.4804287 1.5358093 7.981123
8.2870255 0.72927749 5.9189949
0.17064783 8.1003876 5.2444677
3.1468823 5.4611588 6.4215059
3.0577996 1.9551445 1.4409566
7.4223928 8.0092258 1.5229386
9.5448112 4.9116869 7.9035811
9.8258801 8.0886688 2.2632835
2.6500454 0.71097338 3.4760082
8.5244207 9.4920778 0.39238808
2.6148829 5.9725065 1.9281973
0.59600538 4.2595325 2.657475
6.5150003 4.4301801 0.75786316
1.7594682 7.5770626 6.2190218
8.1809731 0.6348623 8.1741657
9.6219301 8.0572557 6.1833925
1.144869 7.602067 1.0950797
9.0484505 7.4279475 9.1837482
1.3117338 0.077993035 9.894722
4.7877417 8.6024141 9.3867998
5.18013 1.2172968 5.3593063
7.1083269 1.8133022 9.6188383
9.7658024 8.3283024 4.0490189
0.52366537 0.087770596 1.6260815
6.7426872 8.2687445 2.2609439
4.9168534 7.8906751 0.31819928
1.1002458 9.0355434 7.9202662
2.1953254 8.0839939 5.3482141
1.3790737 9.3957281 5.4262066
1.2737954 4.1834698 4.0286207
0.66059506 9.3635998 5.2459173
6.0199013 6.4719272 7.0592194
5.6387401 6.23773 5.3875217
9.6877584 6.7613945 5.4752927
1.3138403 3.504082 3.7440372
3.574784 8.4209356 1.6347117
3.8929834 9.5211811 0.67025554
1.8132495 1.7165066 8.7542496
7.1614628 3.0955803 8.1499777
2.5876698 4.3693757 2.3334477
6.616291 5.0299711 1.6970478
1.8622079 1.0498722 8.1689749
8.9214277 6.688612 4.4067049
4.3089495 6.3763709 1.1681
9.7842426 7.6902108 4.6721821
3.5282793 1.2649953 3.0931175
5.1629915 5.1579785 2.6142983
5.8332467 6.9712281 4.3308053
4.5874968 4.1326914 7.4263859
2.7374742 6.7203612 1.7957613
5.0709219 3.3366516 6.8257322
6.7679696 5.1988597 7.8756046
4.936945 4.1202874 4.5642166
9.3436508 8.4292374 0.94058746
0.5117501 8.213479 8.6307983
5.1839323 1.7417585 9.8957939
8.27705 6.9047499 5.0537729
0.89134824 2.7379963 2.0250008
5.2221537 7.3254924 6.157692
2.6485391 0.062966846 2.8780534
4.4443007 5.1338887 6.214705
1.2700326 1.9018584 1.4135648
9.1456375 6.8388033 5.5338521
3.7098536 6.1824536 3.963089
4.6504412 6.6942034 2.1765683
3.28124 1.8781359 3.9183264
3.1770337 0.15518562 0.82307631
8.2308064 1.0465338 3.5610726
0.25580722 6.2686872 0.88656533
6.4134989 8.9172258 0.94953215
9.2915525 3.361527 6.0834212
5.506258 4.6315594 7.9852796
6.9198227 3.7771966 4.8240829
2.4536748 7.4870501 1.0065366
6.4167638 2.1374912 7.7007399
8.5933323 5.4187307 9.5788765
2.5116587 8.5957642 9.7340622
3.3347349 6.8265715 0.78059584
6.8958073 7.0823784 7.0492835
7.782373 3.4958777 5.9665098
8.731905 2.7874303 9.3280373
4.8153262 8.2936878 3.9595962
2.8006053 5.213511 7.7367926
7.6246881 7.6671863 5.2238426
8.6312246 4.08395 7.3613338
6.3319654 2.6772821 2.7800651
5.910841 5.188941 1.3758297
5.6449032 8.5236759 8.2024012
6.4254994 5.4194832 5.2847791
3.4747825 3.2018561 8.7806568
9.4412918 1.9337609 1.5680871
8.7693291 6.7490869 9.8617754
2.7289248 9.5496922 5.0752869
0.46571764 7.1743803 2.7424726
5.6895609 5.8056059 6.8264222
3.0508947 2.1375706 9.5037041
5.8309598 8.0484123 4.6926451
7.206789 3.6933155 3.2163205
5.4091902 0.11881445 8.6358032
0.69396925 3.5935969 1.8376598
9.4746265 3.0348887 3.7714207
1.0427129 1.8042176 0.52050769
0.90448833 4.5331426 0.070199981
5.9797754 4.9988599 7.2445803
8.7222471 0.68842053 3.0501862
5.5486703 3.7393153 5.1877565
5.0523748 9.5702753 3.2361686
9.7450199 6.7770648 6.9294839
2.9613402 2.186255 7.0482979
1.597144 2.8802242 0.64189517
3.4348037 2.3548503 3.676784
7.2062244 3.397563 5.4810019
7.7267318 4.3020515 0.014143833
7.7969317 0.28182638 5.0130038
5.041513 9.0040741 5.7014246
8.0916986 4.5527439 9.4407396
3.2794552 9.6051188 9.0110149
6.515624 9.3501377 5.7880793
3.4451079 2.3114781 7.9743342
0.4934063 3.9086223 0.85455871
1.1353015 7.3434258 3.2094088
4.8120852 4.5496507 6.6069722
0.29308695 2.2763827 0.90902334
0.3072308 0.073314682 1.1908498
5.3202348 5.1148272 0.19492364
1.021659 3.206526 4.7476678
0.46239871 6.4859815 4.3527861
9.4734135 3.0016053 3.702924
5.2614932 6.4467134 6.0144024
3.2358274 6.9401193 9.9230242
4.0903864 8.0754204 7.2664504
7.2997952 2.8875062 1.816101
3.9067671 3.1805933 4.0924835
4.8157902 3.487824 4.1657982
6.0066404 8.8080587 9.2806253
6.2015634 9.8297176 2.4871516
0.94923133 0.29211634 8.9731331
5.3020172 9.7655296 1.9747381
9.004941 5.0270228 8.4214516
5.0193434 8.2628508 5.3615708
4.942368 2.3532367 3.4369912
2.2088184 9.6530323 6.3244972
4.0249195 3.5597987 9.5050907
8.117403 8.3755894 2.9929149
2.283201 4.3822293 1.8009735
1.5638263 0.58379287 1.6306912
4.0509777 1.5330242 1.9228076
3.0241108 6.8350415 1.6883373
4.9988489 5.8399825 6.7153602
3.4203002 0.85932606 4.9782104
8.7818708 5.8016939 7.3314476
2.2188621 8.0105124 6.984479
8.5433598 2.0354316 0.54427767
8.0484505 0.15283434 8.9198666
1.0413657 2.4360352 3.3020959
2.8423393 3.9998617 3.8858888
4.4730301 8.0508404 5.4189129
6.3958378 1.0749506 2.2539542
8.0841751 6.0737996 8.0939369
4.7995358 9.4940996 8.9532623
9.7777462 8.2759705 4.7549567
7.1091938 0.49483272 2.7654691
4.0936728 9.0381927 4.8009005
4.6379504 7.0866437 4.9537349
3.557817 8.1280088 7.38977
6.8599129 0.97034824 1.389632
0.74580133 5.4433784 9.4404716
6.1647139 1.8392165 0.51542211
8.4186687 9.9233923 6.5892215
6.5126047 4.7229271 6.0833216
5.465868 4.5006733 4.359292
0.2208246 1.6098669 4.8541245
2.9862938 5.7035394 3.8923171
7.7871943 0.34148976 0.97896051
2.7409294 3.8993068 9.1069698
0.13069957 0.75921947 0.077317908
1.5203315 1.5050209 5.5206966
0.96080309 7.669735 7.3599129
1.4762253 6.0884037 7.2833052
8.0654469 2.6010084 2.0062323
4.1487684 8.0668755 6.5069056
8.5080605 8.2877007 8.1167727
3.3621845 1.2739943 3.820312
7.2545013 9.0611887 4.1618018
8.2334623 1.8021179 8.0611086
7.3404317 1.9328176 8.8203278
7.4177499 3.4531493 0.32534894
2.9384465 4.4139524 7.9950838
0.29835963 5.8901777 4.083487
7.5816641 3.9556241 6.684495
9.5878973 8.1043921 4.7513714
6.0948029 6.6124525 3.039072
4.211575 9.974637 4.3130665
8.0318871 7.2291384 3.3742552
2.1936893 5.4626012 5.176373
0.25479797 2.8030329 7.1091909
9.0751257 0.22078285 0.56233978
9.4004745 3.1592293 4.9762921
7.3955588 3.4575889 0.86646938
1.4790461 1.0392536 4.8220935
8.1635418 0.62715042 2.9264858
2.9149129 6.7219534 9.5389385
5.9539852 0.93352801 9.5135756
0.26705176 8.965415 6.7427139
3.6413071 1.1591047 2.2053154
8.8176804 1.4139026 5.0083485
5.9268708 0.48902869 5.2291307
6.4892106 9.8895035 8.388361
1.4655029 7.2850628 1.8459494
2.3319721 8.7641087 2.8852031
7.1540661 6.92765 3.5123534
0.080551669 9.8425636 0.23430616
9.6194897 5.7965479 1.1678343
9.1330652 6.0636001 0.1332496
5.8757801 9.7049065 1.2923543
8.0810947 8.5225878 2.7062569
3.0894434 4.4494581 3.1952856
8.3185749 0.93866909 3.0847893
6.7069349 2.4041719 0.36985201
8.5528841 4.7361441 9.1339607
1.4380875 1.8902097 6.0616107
4.9504409 1.9707613 5.9041739
5.1847467 1.5902513 1.7007221
6.3525815 0.72331691 7.7643223
6.4858303 6.5990968 7.4692292
7.7781849 4.680192 5.9918165
0.48444194 7.7696352 0.44127464
3.6797276 6.0882096 1.3799436
6.7645168 2.795145 3.7841156
7.1343689 1.3480295 8.5202589
6.2683296 2.7861168 0.41046903
2.3299403 7.736558 2.3812304
8.2341137 2.9213047 3.9714816
9.9348364 9.2738857 4.6947985
7.6991582 5.7597165 1.2938952
5.1683874 3.5379016 5.9740872
1.1602039 4.0223436 3.7437222
1.6014786 7.7020712 9.8319321
2.9814222 4.466588 2.6270771
6.7655377 1.6009569 3.9751065
5.2857971 7.8692865 6.7612238
5.6962662 0.19922681 4.4977813
8.0774965 8.433341 7.419086
2.0489783 8.3681774 6.6929722
6.7437768 6.0673356 2.4526887
8.037672 1.2357234 5.9905906
4.0117593 2.3959274 0.01293391
7.7554808 3.9974058 7.7150054
7.5874133 6.9788284 2.1815929
0.21449031 3.7443659 3.7825499
4.1895967 9.0301628 1.6518364
0.95082051 4.7264295 1.8510633
5.4486017 2.803926 0.28440419
2.8676882 4.8529043 8.6525812
9.5606604 1.5966811 4.7199173
2.0133491 9.6343527 5.9556408
8.0039396 3.6461124 8.3515682
8.0168734 1.4015936 2.3489738
5.7318783 8.989007 9.3278017
7.9134712 9.2034969 3.0721679
1.6960211 3.3930941 2.1023312
3.3478572 4.3439145 6.8287606
5.1989202 9.7925167 9.6326866
5.4833245 2.6602049 4.4855909
4.1359062 2.2208648 6.0822721
8.8558235 4.2342138 5.7166247
4.8114643 2.238153 9.3627377
3.1630323 0.2550261 0.76433092
5.5120058 5.9869046 9.7533379
4.8398075 3.9003754 8.9568348
7.9119759 5.5963964 2.3499289
0.014306768 8.9442539 6.6938438
6.8430672 4.1431746 6.4863596
6.4757538 9.6264992 9.1465645
0.96134454 3.7624054 1.3674294
7.0436163 2.6182294 5.6016436
2.7602415 7.4296932 7.8397961
2.1229789 0.59272569 8.0948219
2.8873098 6.1047316 4.0817266
2.6406476 0.94453943 7.9821019
1.5974822 8.8565149 3.5784984
3.9474111 8.870822 2.5227523
0.64125443 5.7138891 6.6659265
7.127614 2.1896429 6.2924261
6.2741785 3.1509874 0.054831654
7.6416082 0.19460383 2.6730609
3.2432511 2.9548454 0.10275446
1.0830474 5.0778241 0.69548011
9.1778698 7.9651346 6.8002119
3.2595959 0.60578156 7.744751
1.2416978 2.2032638 6.6012664
4.8201962 6.1506748 5.4720883
7.3429484 6.7919292 1.1859775
4.0088749 3.9195437 3.3756204
0.30130097 0.19372231 6.526608
0.35613266 7.8353305 6.7212114
3.0291936 1.0785817 9.6760569
3.131948 2.161629 4.7538815
3.8274283 1.3394986 2.7190156
0.62763989 4.5990949 3.3247969
8.3723907 5.8407922 5.5280609
4.9736576 0.66098839 1.6787356
0.44574565 8.0039368 8.470665
1.631723 2.0128117 2.3902085
5.0073433 2.3141127 2.5839307
1.5339513 2.6702452 0.41926122
8.2551632 5.699439 1.497843
7.9312201 8.8313866 3.6594722
2.685101 2.6588151 4.9989705
5.4041166 3.2864549 9.5980654
8.7289133 1.658846 5.4388576
4.2569742 6.6325035 6.0998459
5.9357095 7.078249 4.1037827
4.4063749 8.7099724 6.1165943
6.7965832 3.7173154 8.430707
9.3805141 5.251267 1.1009521
9.7997751 3.5064297 6.8003912
1.2976183 1.4376496 5.6317778
4.9570904 4.1227508 8.2905922
9.9560614 9.5268669 1.5770476
9.5541267 8.2557802 3.2358935
4.9929838 2.5127544 9.8683968
1.0928299 8.4484644 6.9466457
5.1966124 2.8548388 5.6566181
1.3132069 9.6514225 9.3739338
9.7439137 9.0319366 4.6252007
0.8448658 8.8317118 8.1316299
7.6452565 0.12932983 9.5692806
3.2770345 5.0864201 3.6920307
1.5676272 5.0424814 3.2188976
3.1446745 4.5966072 1.4746783
6.380568 9.589592 3.9874327
6.2489648 0.68242127 2.4358971
3.195611 5.879034 5.2907362
8.8522282 7.1922407 4.9421587
8.226162 6.9361544 3.9740949
2.8513627 7.7810202 2.8058064
0.98299325 5.4262772 2.9351363
0.55227309 8.7033119 8.0215559
4.2443037 0.27093861 3.0640376
7.4632015 3.4156132 7.6606455
8.9378796 9.7961817 7.2502365
2.9253125 6.0451465 7.9326577
5.3612094 9.240757 3.8116913
0.65194583 8.0929861 1.003932
5.5941048 6.3191485 7.9400868
9.5681992 9.1705112 5.7211065
2.3740056 0.1535046 1.1473837
5.3091421 0.7057777 9.8506947
3.3306983 4.9500813 0.12163384
6.3947353 2.4132829 3.5372472
4.0553808 1.3511624 3.3334284
1.3056171 4.276475 9.3785753
9.2382746 9.6376839 8.6193314
3.0499661 0.28963023 6.7123179
4.0538983 5.8837347 3.0314662
1.9939846 5.4519339 2.2019777
7.7150912 7.8259397 2.3554823
8.8624754 3.1350813 3.06126
8.7131701 6.4657793 8.011342
8.8348045 2.8605154 0.4246242
2.3720512 6.9158959 1.7757866
5.7054801 8.2215128 6.0522614
5.0840545 7.4597878 5.6899457
3.7033865 0.5097537 5.9795761
0.41570452 4.5636516 1.8633108
3.4471707 6.5576363 7.3152447
5.6491489 4.2727275 5.1411839
8.004631 3.1352024 8.2762651
1.0658909 1.8483729 4.7420449
9.0772324 0.68317711 7.6025605
9.5018568 3.0552282 4.5184565
1.2776432 8.7607079 2.7399695
7.3299046 3.8447628 0.1997572
3.0198505 7.5481491 0.70951092
8.9994268 7.9638534 5.2731628
0.86273742 1.4110246 1.8307989
8.1779823 7.060173 6.1035261
3.3191659 5.0648041 9.2387285
1.5954313 6.1306953 1.0871018
6.3374763 5.2079272 1.7702788
3.9400363 4.709784 4.8255072
8.4584923 5.9874272 3.5862155
1.1984622 3.317332 7.4309778
1.3982195 6.3371825 4.9791274
2.1077304 5.3366094 2.9429812
7.3808928 6.1993465 4.3540058
9.2116919 4.3773289 1.4141788
5.315218 7.6964951 6.4789829
4.553947 9.2919264 2.6096783
5.6410484 5.6294022 7.817606
7.4113274 9.5694389 2.5273898
2.2368348 8.0279312 8.5148172
5.82305 9.2263937 1.8321491
3.2540278 0.62461323 8.1693316
8.2331553 2.7323437 3.5059409
1.1761364 0.11323647 9.7052879
5.5301423 9.3249283 4.0826168
6.9443207 4.6401463 1.7791114
3.4233043 9.1940928 1.0710374
6.0329823 4.8351417 6.7004395
3.8505883 2.246469 6.2698789
6.3779783 4.4833035 4.2978101
4.8927956 0.30635375 3.5242035
6.7249446 3.5603819 4.1488171
4.8942761 1.7935371 6.8811607
8.4002171 2.9696732 6.9943972
8.105505 8.499815 6.319325
2.1881213 5.4441361 0.95947123
3.9672327 8.8674412 0.15356418
5.0382705 4.900423 4.9887056
1.7387098 8.7510118 7.2351747
8.0085888 5.1289892 1.7184783
2.3063984 0.021784669 2.024832
5.8306022 6.7467289 5.5852137
9.9794188 1.6410053 7.3787508
6.8605795 0.041222341 0.34842438
3.8549767 8.1467266 8.8482399
0.17430159 0.33484849 4.2923765
1.1337729 4.3020811 3.1598167
1.2873371 9.3403511 8.0602398
6.2760425 1.0790612 6.8112512
3.5112176 9.0876493 1.9402403
5.2296963 1.3940477 1.962025
7.254528 7.2246499 8.7087545
2.8397419 7.2040691 0.34975934
0.21849291 4.0646482 0.39098167
0.5669173 7.9196243 8.5377092
9.4151573 8.0939264 8.8725576
3.7075331 9.2276993 3.1746385
6.8673506 0.51503605 2.5149899
4.9275899 6.791079 3.5940509
1.7388408 0.30229625 2.6817002
3.6790812 5.5319924 4.075748
5.6411057 2.78652 1.3003979
4.3498602 5.6262617 8.5044661
4.6996193 5.8447552 2.5691147
5.0906014 6.4116721 0.48873913
3.62831 5.826829 8.5826654
2.5008674 9.5343628 7.8103642
5.6755061 6.4017129 8.3254004
8.1904964 1.3293025 5.1164794
1.7845469 3.0681431 5.4187756
4.4662471 6.7472243 0.95076752
8.541995 2.3883305 3.7372878
9.8423939 6.7381907 9.3635502
8.3468599 1.4378099 5.2083044
0.91597414 6.5284109 1.6199769
1.4047133 0.15672116 7.4468064
9.9873791 2.6575885 6.9811687
7.7977428 8.3330946 3.3828816
6.1231432 6.5235901 4.712184
1.2396224 8.3081369 7.7803273
6.6583977 2.774384 4.5275517
7.6091652 1.3163794 6.9158821
1.3464532 1.1587726 3.6540725
0.71000278 9.5056324 5.0918822
5.9183073 0.42160627 1.6202937
7.5382843 1.8263196 1.7770149
4.9850903 1.8136979 4.4346037
1.9662595 9.6114407 2.7676978
5.3491411 5.7345843 9.2912884
0.061325416 6.9742064 7.5994253
7.8416529 3.6326041 0.37380931
2.3692045 1.2417697 1.6901888
9.2850866 2.5882225 2.8489614
2.9391596 3.2982256 2.3545935
8.0310421 9.2165327 2.7761996
9.6513357 6.7548175 4.602519
1.4283508 1.7399079 6.4162169
5.8629541 3.7061672 6.027658
8.6306515 9.0553083 1.7622421
7.9219398 9.1166344 8.7364483
5.5213652 6.9582868 2.3690529
5.895175 9.3274918 3.6108227
7.5853634 8.6125784 6.1990452
0.43432471 1.5517379 9.4972706
2.788918 9.5827799 8.7138042
5.5651178 9.2341156 5.4686213
0.16763708 0.66246653 7.208529
6.5838547 6.5254207 0.91469651
2.6115122 5.1560731 9.970005
4.3737545 3.0780129 9.0866394
3.1102028 8.5993786 6.0449262
5.4792557 4.4945531 5.3724184
9.0900784 2.0799165 3.9849963
5.2891235 2.514241 5.5367346
4.7863941 5.3031592 5.1195145
3.5001981 0.86827707 4.3536301
8.9688196 1.0359142 5.0160971
6.1773481 7.6197681 1.5415174
7.0920448 0.23128085 6.6975904
7.0620499 4.6050353 9.7756033
6.1486893 7.7152386 8.3749809
2.1936157 3.194494 2.8695345
7.5660334 2.2845724 4.949451
1.5510299 7.5736957 7.4636917
7.0877643 2.3600898 2.7668512
2.2072787 5.8602877 3.6351285
6.5609083 4.8291068 4.6710424
1.5770054 1.0064552 2.2908111
3.1185226 8.0984993 2.5220919
9.8161135 5.1605501 7.1271272
9.5917158 1.3092389 4.8423653
7.9666977 3.5028543 8.0368595
0.83623224 1.0688879 0.32143173
5.7856836 2.6199179 7.8951273
3.2493753 9.7076817 0.25521722
6.0162263 1.9149609 6.1155052
9.6513548 8.4758701 0.94461203
4.3223977 0.05287509 1.9510672
6.6132088 3.1713982 0.049566969
9.1353006 2.9875109 5.2101164
6.2624283 2.579227 6.5193558
1.1047935 0.54592478 0.022210181
9.1416531 1.3821571 1.0910982
9.4630852 7.16784 3.7110162
7.358212 0.41721553 3.4186983
7.6134295 6.4334421 5.3336592
3.7289345 6.0847974 3.8095288
4.6735468 0.40719482 3.8624039
6.6246133 7.0204039 7.0338016
6.6741805 6.1557045 0.021312796
1.8842973 2.4181323 2.6005399
8.4036531 3.5229259 3.1464646
8.4258633 2.6645789 4.5286217
9.5169621 2.1276639 1.6964619
3.2279775 9.4858761 2.1136775
6.6466761 7.0993052 8.5471191
1.9803351 0.8282398 4.6319165
5.7898641 5.5017862 5.0391111
9.6522684 2.1264 2.059515
6.68607 8.800581 8.2152195
6.7073827 0.68487775 0.6333518
9.3079224 9.0885305 4.1562777
2.4543872 7.5143938 6.820857
6.9830089 7.0313554 8.9485207
8.6794701 0.25933275 8.4343967
0.79314804 6.9060087 5.5337019
9.3402681 8.886344 6.3619418
3.9721842 4.6762075 1.8637277
9.0112953 4.3284755 3.9901276
1.0708107 1.0145457 2.7907081
9.2860298 7.7219286 3.4755859
9.9193821 7.029851 2.5641165
4.0756598 9.4842377 0.078510419
0.89651638 6.467247 7.1098657
9.8450365 5.1467175 7.3691983
8.2794333 5.9398656 4.275207
3.8131351 5.2801328 3.1615508
0.17507654 9.2523174 7.8377585
2.0388043 8.2636127 2.1662343
6.0289316 9.3344231 3.1807799
8.8196392 8.6204538 0.90270817
2.2952256 8.539835 7.932559
4.8593421 2.615495 7.4167972
4.9378529 3.5120115 3.8840439
2.0477183 3.3570483 9.0307617
9.4169168 1.6364815 4.9706273
3.6921237 5.4496164 0.25076014
6.8536749 5.6246929 9.5030775
4.691433 7.6634974 7.7666903
6.857667 3.6924293 7.1011138
0.03844697 2.512069 5.7215672
0.9411552 4.8072948 4.2614026
8.8737144 9.6666374 6.8768973
6.2905116 4.6044893 0.38890883
0.17455548 6.6522079 3.7459569
9.2053165 6.0691242 5.3824387
4.1759439 9.7612486 0.83205527
4.4267044 6.614923 6.456748
3.9297817 1.3063556 4.1202459
1.6964717 8.1640224 7.8126755
8.7975855 8.2024698 0.32474431
4.5191522 9.1436253 5.1320391
8.7805548 8.0173388 4.798676
5.6574526 4.3078508 9.4031658
6.046361 4.4824061 6.0553737
9.7923183 3.6877229 2.1244981
5.1747565 7.863667 1.8857465
6.0068121 2.2903714 8.5006695
2.4635606 6.2201529 9.807025
6.583806 7.916625 7.9710479
4.3964815 6.71421 6.1735172
4.7212257 1.2333623 5.317142
9.8532648 0.013917033 3.3344815
4.6519413 5.6713696 7.6423316
4.0551071 1.7177302 2.124738
0.11048055 1.5100482 5.8124614
2.2349789 6.6848049 3.6761284
4.1207252 2.691617 5.9665003
2.6213944 5.1551776 2.1866531
2.4284194 1.738984 0.10327785
0.39946678 6.1354656 6.8174882
6.5729837 0.85669124 8.0508499
1.8901263 0.70995623 8.0647669
5.2246075 5.3618975 3.7361364
2.8669395 9.4170036 5.453867
4.9916778 9.5274849 6.9639149
0.80413872 1.7624636 3.6487198
4.480267 5.8831887 6.3403368
0.44676691 8.5045834 1.4955144
2.63342 0.93300247 3.2344983
2.7366977 1.3324692 9.3699636
9.5541859 7.9054537 0.22665502
7.6050358 9.7955799 0.93661124
5.6698031 5.0201874 6.2985086
9.4059391 7.8871269 5.7155128
4.8598061 2.8788044 5.2429972
1.8237212 3.6829429 7.0054617
5.4724407 8.1632099 2.8886499
1.8127778 8.6099777 1.3932333
3.3082924 1.243397 2.3262358
6.5427904 3.9800949 3.658705
5.9127545 3.5342803 1.5641583
6.1394095 1.1393164 1.359738
7.0760207 6.8091197 6.3799248
3.3745291 6.2150598 4.2670522
9.0900421 1.0748659 7.1458569
4.3330398 2.898587 0.82879961
1.338501 8.3710279 8.9920101
4.2271509 0.18380594 7.6019869
5.6203842 3.4920981 8.8453846
7.94662 0.034888763 2.8254786
1.605325 5.9476428 6.3597589
3.1694832 2.0870523 7.4990754
4.5292215 9.1630735 4.3081951
0.90914643 2.5376022 0.52325451
5.1761985 1.6276443 1.5981205
2.3220549 5.9606838 4.4967074
3.1508543 7.2991848 2.8677356
2.1428642 1.5263361 3.0515413
9.7448511 7.1467204 6.5436401
8.5902348 5.0933404 6.5785284
1.4157134 6.6986656 2.5261714
7.7754726 9.8681488 4.613224
5.2745481 4.3973703 3.7762973
9.5827427 5.3065166 6.3139
0.10599738 0.48271513 7.9415441
1.7041178 2.8047702 3.9022279
6.2008257 5.9556246 1.2014129
9.0685616 8.0984888 2.7277491
2.1201024 7.8433399 9.8744698
8.6637421 6.4335747 4.9678102
5.2422709 7.849288 1.6664757
7.7684426 5.6247611 1.5346246
2.3816667 0.89930844 5.9319949
6.1579638 0.48205134 1.2385116
2.4718633 0.5880487 1.7212266
0.41340703 2.2921665 4.5259967
4.3156347 8.4929924 0.4816213
5.5170484 7.5615525 8.5801105
8.2447968 9.6816549 6.42345
8.1192665 8.3453979 2.8570247
3.0870769 3.5876684 0.70631301
4.7535524 1.3561108 6.3310738
6.2881775 3.7377775 7.230382
2.2201719 9.8957415 7.7124333
3.4586835 2.3676043 8.3004818
5.1799102 2.7810116 0.59264874
9.7059069 7.0966463 9.0856409
0.18752806 2.6136944 6.6471934
8.7676382 0.85849142 6.3288488
5.1910882 8.9777584 4.6742463
8.0481129 2.0648351 8.2619152
8.754426 6.8183875 9.6180258
5.0854998 3.1065645 3.3558033
2.3158817 5.3267365 3.2515442
0.028315429 8.7854204 5.6191487
8.3287983 3.9653301 8.4001598
8.9214458 3.671237 5.4968066
8.0070868 3.8587646 8.1105003
4.6542807 2.6264029 8.9689922
0.9831292 7.8174915 7.9467506
5.6573753 5.8656044 0.011585383
3.9192903 4.6200299 6.8299727
3.5373161 9.7055302 9.9365377
6.8931193 2.0214117 5.2632742
0.14466347 2.0497272 4.0486941
5.7638121 0.37852472 8.0140238
4.1639724 9.2999716 1.6852608
9.660779 7.3070579 5.5440259
7.7712798 1.9613386 8.1704292
6.740272 2.944468 5.9879203
4.6870227 8.6018438 1.8535242
4.6986079 2.5211339 6.4735546
1.5285807 6.0584497 6.1790843
1.4651182 2.9515691 8.2004957
6.7283921 3.0962324 0.25022268
0.77708626 8.8600445 0.6287474
8.791111 3.0240173 9.9287186
0.4763712 2.6847959 7.2357769
6.0203972 0.45607567 9.1971149
4.1908259 7.1963477 2.1415834
0.17874584 1.8833702 0.74342704
2.03227 6.5819783 3.2645609
8.5058241 8.1105585 9.3230114
4.6849079 9.5756769 2.2745798
2.8854039 6.304069 5.3708124
3.1356266 7.0811553 4.2308574
3.764374 5.8722658 7.2548742
3.6930923 6.3486366 9.9396706
0.92886937 2.3690338 0.39574593
0.12598498 6.5598593 7.5920935
2.2675686 6.7386055 9.4754639
3.0109956 8.770875 6.0574417
6.2755566 7.2766995 4.1680002
5.598567 1.9616078 3.7436771
7.873147 4.8470116 0.047746222
3.2439599 7.9826379 7.1289015
7.4748173 1.7470119 3.0011668
4.729691 5.4401045 9.3498039
4.6693616 6.3689737 1.7188375
5.0651073 6.4949589 8.278697
2.6572011 8.7625275 5.017302
2.1326649 1.7735229 3.7881777
8.1901064 8.0490789 1.0648773
2.3581071 3.6476467 3.026485
6.1017842 1.5207937 7.8734965
6.1495304 4.7647533 5.8561344
3.2784319 2.2395704 7.6031466
6.2795992 6.9692616 3.0432508
5.6294022 1.6386234 9.4122238
7.3482399 6.7037306 5.9071832
5.6269369 9.3609324 4.6697102
0.64423931 1.4935968 6.4432335
4.4324169 9.6837034 4.4923124
5.4972939 2.0418103 8.1399593
8.5237789 8.1435947 9.6607533
6.3972754 4.2931247 4.4255066
2.2534099 7.5715566 6.6650772
9.8565559 3.8511553 3.6343386
2.899807 9.4805584 5.2729616
2.3120315 6.8287983 1.9766929
8.2192144 2.455735 1.3376249
2.8889253 3.0999742 2.8312218
9.332159 7.5323911 2.514925
3.8244712 3.0296853 4.556735
1.9644303 1.5534645 2.7003293
1.6251833 7.9507399 6.993454
6.0506897 0.20415001 4.5650105
2.7157667 0.060706284 8.4161654
6.3501053 2.9605131 7.8967237
1.6230677 5.2725449 4.725522
3.5997608 3.4917595 7.1812563
4.9373856 6.3806849 0.28123087
7.7686071 5.7128434 7.8136215
0.28353226 9.5373144 0.84330744
4.8402677 1.5017449 2.3967719
7.5405974 3.1269283 0.34751192
4.5340514 9.177618 0.55166191
9.099062 1.8933851 0.61236823
7.5152278 8.2434902 3.5728815
5.4119515 9.8665581 8.8454266
0.13747352 3.4663191 2.3371859
7.3187304 8.4037046 8.7178707
7.5999613 6.1723118 4.4307141
5.4135828 6.4558439 3.9680285
6.2568903 1.2961116 5.4697733
8.6536617 8.836709 8.5967016
9.0011749 3.37076 7.7743196
9.5528364 2.4698219 9.6677046
0.16520447 9.9850502 7.9111953
3.738086 5.3970013 7.7777534
2.5835121 5.5344753 1.2440727
4.9206977 2.8532054 9.6477776
3.6385684 0.45316651 5.8200893
8.0692825 5.8667493 2.2759335
2.0373108 2.1236401 3.5720453
7.5070839 0.7773025 2.4087539
6.1037855 9.7784767 5.7795143
3.8781052 9.3313131 8.2493362
3.54581 9.4965181 8.2343855
1.4570051 3.2346034 3.6313879
9.2347584 5.8181152 9.165863
0.47883156 0.73881364 2.0190687
0.12660894 4.3773823 2.4722352
5.9466982 2.4466643 8.3389845
8.2226315 4.4839754 0.46262488
1.794677 1.9910592 1.2399274
4.2034311 8.0948448 1.0184042
9.9829454 1.9729501 0.34971732
8.2322807 5.5187602 9.8462353
6.4666677 6.9757652 3.0808382
0.098055266 6.2105236 8.8989534
9.2639179 6.6893554 9.6377678
1.2829871 6.8159647 4.0151496
3.7552223 2.7626629 6.4618139
2.094207 0.98529458 0.94578928
2.5568318 2.7799716 2.9368484
3.7967591 6.9834032 1.0316932
4.8151636 6.9663477 3.0046434
5.1648808 5.1986289 8.5234032
5.0111156 1.6652966 5.4991684
8.0919542 1.7633519 1.7096924
6.9909086 1.0272703 8.3990479
6.6286759 2.3102574 5.2150126
0.64382577 6.0654793 7.9776754
7.1056404 8.159687 8.9629698
8.0514297 0.71651876 1.7429414
0.98827779 4.513278 8.7263441
2.0199709 9.3284416 5.6926918
5.0246143 4.4933224 0.89132124
3.5480175 9.5044384 2.5566177
9.0471859 7.5963926 4.3199692
0.75687826 4.5873008 5.34724
9.1559258 1.2159766 7.6574969
4.3709383 1.8598025 3.7229772
2.3486137 8.9654427 1.8826637
1.3115835 7.0168715 2.5991824
3.0545249 8.0051498 7.1124606
1.7808692 0.025120368 6.4409022
7.4735613 5.0497346 0.93422461
8.3648825 8.5977526 0.43866289
0.92150021 7.6449385 8.0350552
5.2414699 8.4018164 2.6223562
0.58870947 7.5577426 3.8383327
8.2462063 1.9286811 5.6981349
1.9691836 4.2772951 4.6635776
3.8518474 5.5888786 1.680449
6.4510298 8.643404 9.6855984
3.5634902 0.42427272 9.7107182
0.0043923873 7.8978343 4.7604532
0.93861699 6.2627168 3.3582056
1.3772799 7.184217 1.0031437
9.4123354 2.4256864 9.4049606
2.0346911 3.0143957 6.9627028
5.873024 1.2606026 8.8913841
1.5711589 3.2297862 3.1686788
6.2347364 7.0816331 8.7575569
7.915185 3.5326633 7.4009609
7.6007838 7.0961533 7.8252339
7.311502 7.1005459 5.7230673
2.0719554 8.0391626 1.9857842
5.4301615 9.4164429 9.1700001
6.4333048 8.8287773 1.5956872
5.8382649 0.86346912 4.6100831
2.8009677 6.7364931 5.8706856
1.6923513 8.3076515 9.1004715
4.8610301 4.542388 6.1821055
3.6185875 2.4575732 9.7147684
1.0195485 0.058356658 6.8109221
8.8447819 7.3698587 3.9114678
4.5678501 9.4418144 1.9506305
6.5536337 4.8719754 1.3670732
5.7236347 1.3052802 0.19585118
7.3193221 7.1435452 1.0593202
1.929405 9.9445133 7.7958131
7.8000908 1.6368641 6.1034651
6.9005628 6.4978943 0.64585292
3.0826678 0.11648206 3.103426
2.7974362 1.1360307 3.1617827
9.6083584 9.980813 0.5316416
3.5198259 4.5486627 9.9734554
5.4704566 1.1022967 4.8454313
6.8375297 6.8259315 6.150712
7.033381 4.1452537 3.2942567
8.092701 6.0746584 3.2387695
5.8885145 3.8747492 4.8756332
1.9919791 0.77531183 1.373528
2.6378322 3.8579795 1.49001
5.7412581 6.655416 2.6260405
8.9030409 6.2637739 2.6068535
9.4346828 9.7835999 7.1555161
9.4081383 5.254056 8.2578125
4.2535701 2.0915856 5.0837445
0.40428168 9.1249666 9.2289982
3.6985385 7.2176676 5.3036566
6.9373078 3.1061819 9.1784058
1.8129414 5.0981612 9.9537172
3.1864693 7.7359934 3.811697
4.6764793 3.4772515 0.46711296
7.3025198 2.3802927 6.7308865
9.9093733 1.8149751 6.5144868
7.0648899 1.2231138 1.7685426
5.3227024 5.4766841 3.8601282
0.40644708 5.8809657 2.9850948
9.6354446 9.579504 0.20276254
4.9391017 6.5168118 3.3089445
4.1175075 8.3297529 8.4071054
4.0712252 1.5162225 6.1430988
7.8829222 6.1927013 9.6203508
8.3500347 3.4952216 2.0006433
5.0809221 3.4045949 3.8156185
1.5954084 0.46948469 5.0387325
3.3639512 5.7921877 0.51541591
7.2240791 6.1986346 6.3963814
0.20917434 5.8340793 5.9758854
0.41193691 0.77318096 2.492697
3.7208815 4.8906884 0.82245016
2.1279869 8.9619141 2.3386726
8.2710857 6.8448353 8.531374
7.8914366 5.1948709 2.0265961
9.8920803 0.27579263 5.4311914
3.7076983 1.871201 5.9006758
8.7464304 5.2351522 1.6928631
9.2618456 2.4592319 7.8914976
5.6582279 2.668406 3.7255766
1.6341127 3.080343 4.4987578
4.1268101 6.8012242 9.3894463
4.9492602 8.9292116 8.3513594
7.2879324 7.2002978 5.1961951
5.8193069 5.0917339 0.39106563
7.8459029 4.9838142 0.66685826
3.2770941 8.6915121 2.5380592
9.1777697 7.4379425 7.7732115
0.87063283 6.6997886 0.23244351
8.7621298 2.3580163 2.9008496
2.4877071 3.9921288 5.9811926
6.986465 8.1189384 2.7824168
6.3759112 3.0681989 1.7116286
4.7272706 0.35613135 8.9119263
9.9234657 6.1754379 4.0036602
0.31453118 4.0213413 8.9874744
0.9813894 7.2984357 7.6789861
3.519449 6.4762049 5.1169291
1.2926607 7.346838 1.8167174
1.5251042 6.1089683 4.1747336
4.4259539 8.5966759 8.1668625
0.40714645 5.5831404 6.2858014
3.1895635 1.9590511 9.3540001
4.9011922 6.6863213 9.7101316
3.813118 6.6097875 5.88557
7.8167782 6.9243183 9.9069109
6.8042521 7.9057078 7.2053461
4.4832387 1.4251567 3.6815515
9.6001682 2.7178173 1.0283895
1.4168851 4.2429214 7.1373577
5.5916185 8.6688747 5.7340331
3.7584815 9.0760221 1.3171731
0.044282846 2.2655852 3.2762241
9.398283 7.1667771 9.9625454
9.1084146 0.97989535 6.5723329
4.9939847 8.7966738 3.4966514
4.9008961 5.6009264 1.4023591
2.1062424 0.084165074 2.8275158
5.7877941 9.6843328 5.5453329
6.8161831 1.1012177 9.7882547
3.9535413 6.6928363 8.4571295
9.6875744 0.45131776 7.5331516
1.0047472 0.49560064 9.7987366
4.2809715 9.8938837 6.9655137
4.2435174 9.0022984 7.9454093
0.8158502 3.9962835 6.7420826
4.3125014 8.8971796 2.3430092
5.7148604 1.0034217 2.4271746
8.5423765 6.7912154 2.1115069
4.0877099 3.6073992 3.2127249
3.8759642 7.5609403 9.9055614
2.3330944 7.2485142 0.35687906
9.8662462 8.2532616 0.8524797
9.6649828 2.5342331 0.74636346
6.630497 6.77775 9.748662
4.5759063 7.5936003 3.7449453
1.3179892 1.9061019 2.6421247
3.6609986 7.6209631 3.6455464
6.0881729 6.1633396 0.43676209
8.1996803 0.2510491 4.0441613
1.4124049 4.1270132 1.6051018
1.3179661 6.4601078 8.8536158
1.6748452 6.3263535 7.1068783
2.5273249 5.9913359 9.6411114
3.2736883 2.6218331 6.4188614
3.0223503 7.1977386 4.0124617
6.7672958 8.515728 5.9185638
9.40942 2.1767268 3.5395265
3.0549667 8.2649002 9.7028656
3.4917285 6.4645796 9.9539146
7.5358906 7.8769846 4.0809283
9.1409922 9.1949511 0.54103601
7.9946084 0.86979616 6.8673897
5.1014862 3.3971212 2.858726
4.7425976 6.6708093 5.4805589
1.1614586 9.6931591 2.678298
5.1739206 6.4604559 1.1940264
1.0924839 5.8698754 3.3707533
4.63201 8.9248428 1.635653
4.3348761 2.4165711 8.1002331
4.2887907 9.9524612 5.9772177
8.3697186 9.0934534 5.1721687
8.9107552 7.0880613 6.041965
5.7781448 2.1895478 9.439086
8.6368704 6.9321446 6.1098952
4.1174297 8.0936041 5.8030548
6.7957277 3.267524 2.2635102
7.9897542 4.3600078 8.1333866
1.3605071 8.9920177 7.0582285
2.9961605 3.326894 9.4748001
1.0963931 7.6156845 9.4272604
7.0736113 5.9854035 8.5207138
2.2457793 4.8961582 5.6087756
8.2877436 0.6743027 7.7983232
7.7268295 9.3111725 4.7304683
3.8367248 3.4286025 2.8240716
9.6397791 0.22433011 6.0915956
1.9032898 8.2140837 0.45160356
0.03667596 9.5745907 9.4436216
7.0949039 2.5707512 2.7705157
6.5697045 3.6671445 0.38620022
5.9969654 0.74075544 6.3716035
4.5176792 2.9865348 1.2677617
0.12645465 1.2742788 1.9420645
7.924778 9.0011082 1.2532377
2.655246 2.8378332 4.6818404
5.4793172 2.4776127 4.9061704
1.5709133 4.3809028 3.1202543
2.022517 4.4175787 2.6948454
1.4661385 1.5124831 5.2655973
4.2366543 8.0821877 8.9327421
4.6228542 4.0791521 9.6734972
0.99445808 8.5968313 2.6600318
2.2622199 8.7232866 3.9343107
4.2042842 6.6480641 2.9354191
5.4575224 9.3033104 5.7732525
0.13936228 4.7826276 8.250865
5.0455327 6.3535409 2.6317677
8.1657867 8.3760576 7.0493464
0.86063266 9.8421965 8.5618296
6.1262298 4.0788503 6.6440172
5.0589714 8.701705 0.72316933
4.7324686 9.6961632 9.3200006
7.3924999 1.9583827 8.0432873
1.3268108 6.1626673 4.6913514
4.2622299 1.6201891 3.9946613
0.035482239 1.7595513 8.7772884
8.2863474 6.8050838 5.1308293
0.91811508 4.970871 3.506887
7.9674616 5.8315039 3.3490834
6.5292912 1.9577334 7.4279337
3.1733081 7.0167046 6.1296387
3.8964772 1.7491733 5.8258014
3.2164783 9.1416731 7.7841845
1.2597656 0.46848446 3.9468513
5.9511166 4.7307143 5.5670404
9.9457779 4.7661967 7.3265915
8.7230663 3.0525441 4.1316757
3.8538961 3.970659 9.1025467
7.3607831 1.9381206 4.9340501
0.70986652 8.467412 6.8917837
8.1378002 1.6407198 3.9084885
4.2674389 5.5371971 5.6576614
0.093240365 8.7536755 4.7993355
